ply
format ascii 1.0
element vertex 1423
property float x
property float y
property float z
property uchar red
property uchar green
property uchar blue
end_header
164.238 288.851 521.58 71 43 32
165.519 290.182 523.983 69 41 30
166.867 291.622 526.583 69 41 30
178.871 290.6 524.738 75 45 35
179.672 291.048 525.546 79 47 36
180.999 292.343 527.885 83 51 38
187.264 297.261 536.766 81 49 34
187.236 296.368 535.153 81 48 33
210.952 310.817 561.244 147 152 155
211.21 310.372 560.44 147 152 155
211.467 309.928 559.638 147 152 156
226.497 313.699 566.447 145 150 156
226.938 303.68 548.356 144 151 157
226.938 302.948 547.035 144 151 157
247.995 311.54 562.55 101 108 116
248.406 311.351 562.207 102 109 117
249.039 311.439 562.367 118 125 133
249.504 311.318 562.148 140 147 155
249.968 311.196 561.928 154 161 169
259.886 316.433 571.384 134 138 147
248.834 291.446 526.265 100 107 113
2.83628 314.827 567.461 41 37 36
4.53155 314.376 566.648 76 82 80
6.62915 306.598 552.628 49 49 47
7.16304 305.807 551.202 45 39 39
7.69589 305.087 549.905 50 38 40
17.3542 310.695 560.013 57 51 51
16.9247 293.537 529.087 36 30 40
20.098 309.844 558.479 76 73 84
21.0706 316.059 569.681 44 42 53
24.7448 280.273 505.178 58 58 60
27.0354 283.107 510.286 96 97 101
28.2371 279.85 504.416 94 92 95
33.2453 312.731 563.683 53 49 48
33.8112 312.753 563.722 41 36 33
31.2636 275.417 496.426 85 82 77
34.3403 280.277 505.186 82 86 85
42.136 316.02 569.61 69 74 78
45.594 312.403 563.091 110 96 96
45.6267 294.451 530.734 92 80 82
50.1478 312.719 563.661 90 84 94
50.7345 312.863 563.92 88 85 92
52.4605 303.287 546.66 112 108 109
55.1056 315.295 568.304 71 67 66
55.7641 315.807 569.226 50 46 43
54.9181 307.874 554.928 57 54 49
58.2005 304.729 549.259 53 50 45
58.6631 304.28 548.45 74 75 70
59.5957 303.446 546.946 50 56 56
63.2759 316.38 570.258 91 103 103
63.7427 315.868 569.336 90 104 105
64.3118 315.868 569.336 104 116 116
67.1577 313.215 564.554 100 78 64
67.656 312.909 564.003 97 71 56
68.1925 312.784 563.778 99 70 56
68.7303 312.667 563.566 105 73 62
69.4009 313.15 564.438 111 77 68
70.4189 312.66 563.554 106 72 71
71.9125 314.263 566.444 118 86 87
78.9449 315.212 568.154 106 84 87
79.472 315.05 567.862 106 84 86
80.7722 313.487 565.044 106 86 87
81.3304 313.461 564.998 107 89 87
81.8866 313.428 564.939 104 89 86
82.4427 313.395 564.879 102 87 82
88.0801 299.905 540.563 95 64 61
88.5347 299.615 540.04 95 62 57
88.9884 299.325 539.518 97 64 59
89.4413 299.036 538.997 98 67 62
103.64 293.471 528.968 82 53 49
104.801 292.285 526.83 80 52 51
106.345 290.745 524.054 97 76 81
107.108 289.976 522.667 103 86 94
108.239 287.43 518.078 119 98 107
109.83 286.176 515.819 129 107 109
110.612 285.533 514.66 131 110 105
111.001 285.21 514.077 129 106 98
111.775 284.565 512.915 136 114 100
112.546 283.924 511.758 116 93 75
125.803 315.93 569.448 106 84 63
113.865 284.663 513.09 87 65 44
113.665 282.887 509.89 79 56 38
114.633 284.024 511.939 75 50 43
115.016 283.706 511.366 75 49 48
115.779 283.072 510.222 68 43 46
116.562 282.497 509.187 68 49 55
117.324 281.881 508.077 71 60 68
117.791 281.785 507.903 54 44 52
118.545 281.166 506.787 59 54 60
118.921 280.857 506.231 69 62 69
119.671 280.242 505.122 101 90 94
120.914 279.614 503.99 125 111 100
121.653 278.998 502.879 132 106 93
122.385 278.376 501.759 132 103 85
122.75 278.066 501.2 139 111 90
124.236 276.912 499.12 125 87 64
136.317 290.984 524.485 108 92 93
139.325 275.179 495.996 139 125 125
144.175 275.921 497.335 68 54 54
144.86 275.333 496.275 60 39 36
146.219 275.09 495.836 73 52 49
147.024 275.67 496.881 65 47 43
147.664 275.939 497.366 61 46 43
148.306 276.208 497.851 63 52 48
148.796 276.194 497.826 69 58 54
159.261 285.128 513.929 69 47 36
161.705 286.73 516.816 61 41 34
162.871 287.877 518.885 71 44 35
164.134 289.188 521.247 69 41 30
165.398 290.494 523.601 71 43 32
166.705 291.866 526.074 71 44 35
186.499 296.582 534.574 80 48 35
186.427 295.619 532.839 80 46 34
210.85 311.228 560.972 147 152 155
211.108 310.782 560.169 147 152 155
211.248 310.166 559.059 147 152 156
226.178 314.609 567.067 145 152 158
226.739 314.601 567.053 148 153 159
230.971 300.913 542.381 146 151 157
250.219 316.336 570.181 131 138 146
250.847 316.409 570.312 135 142 150
216.675 272.07 490.392 123 130 138
259.885 317.002 571.381 135 139 148
270.077 316.229 569.987 106 111 117
1.69954 314.982 566.718 48 40 37
2.26749 315.181 567.077 38 30 28
2.83616 315.381 567.436 36 30 30
3.97566 315.781 568.156 48 49 51
4.53071 314.885 566.543 98 107 106
5.05818 312.483 562.222 106 116 115
6.15184 310.947 559.459 29 35 33
14.7991 316.472 569.399 64 59 55
16.45 295.039 530.836 31 25 25
16.9474 294.461 529.797 28 23 30
21.6426 316.666 569.748 47 45 58
23.6109 305.294 549.288 63 65 77
24.3474 288.025 518.217 74 74 82
27.2481 302.999 545.158 62 63 67
30.4874 308.2 554.516 69 70 74
31.8476 310.654 558.931 78 78 80
33.7918 313.137 563.399 82 78 75
34.3592 313.176 563.469 83 80 75
30.6509 274.87 494.548 72 67 61
32.0203 278.176 500.497 68 69 71
42.7556 316.961 570.28 66 71 77
43.3448 317.101 570.531 73 80 86
43.9175 317.119 570.563 103 113 115
44.0825 306.374 551.23 98 95 90
45.4726 308.327 554.744 113 101 105
45.9487 307.801 553.798 95 80 87
51.881 313.542 564.127 95 94 92
54.5486 309.48 556.819 61 56 53
58.58 304.397 547.673 60 65 61
59.0536 304.017 546.989 42 51 50
59.526 303.637 546.307 73 84 86
62.6458 308.239 554.587 107 123 123
62.3191 301.299 542.1 138 149 145
67.1498 313.742 564.487 119 109 97
67.55 312.982 563.119 101 85 72
68.1163 312.997 563.148 90 71 57
78.9554 315.822 568.229 107 85 87
79.4826 315.659 567.937 106 84 86
80.7399 313.926 564.818 108 88 89
81.635 315.202 567.114 105 87 85
82.4099 313.835 564.655 108 90 86
82.9657 313.802 564.595 105 87 83
88.8703 299.466 538.802 96 63 54
89.5179 299.831 539.459 97 63 54
103.744 294.294 529.496 78 48 38
104.489 293.412 527.91 72 42 34
105.295 292.721 526.666 80 51 45
106.082 291.988 525.347 86 60 59
117.744 316.259 569.017 105 85 94
118.267 316.136 568.794 105 84 93
108.219 287.894 517.982 109 88 97
109.005 287.235 516.796 116 95 104
109.787 286.579 515.616 118 97 104
110.31 286.6 515.652 124 101 107
110.98 285.67 513.98 134 113 112
111.754 285.025 512.819 134 111 103
114.339 283.805 510.624 90 65 60
115.388 283.874 510.749 76 51 47
115.768 283.555 510.175 72 47 43
116.527 282.92 509.033 76 55 50
117.313 282.364 508.032 65 50 45
117.693 282.057 507.479 68 54 51
118.548 281.678 506.797 55 46 47
118.924 281.369 506.241 52 43 48
119.674 280.754 505.136 68 56 68
120.421 280.142 504.033 87 73 86
121.164 279.531 502.935 117 103 103
122.06 279.281 502.484 128 103 99
122.79 278.659 501.365 128 105 87
124.653 277.228 498.79 151 120 92
131.005 281.232 505.994 110 93 86
130.964 280.062 503.891 110 92 88
138.224 272.527 490.333 108 90 86
138.41 271.93 489.258 97 80 73
142.536 276.132 496.819 56 42 33
146.65 281.164 505.872 68 52 53
144.931 275.965 496.519 62 41 38
147.199 275.564 495.797 73 62 60
148.451 276.049 496.67 60 49 47
149.032 276.205 496.951 67 53 50
149.676 276.479 497.443 77 59 55
150.322 276.753 497.935 83 62 57
160.629 289.966 521.71 62 39 25
162.172 288.076 518.308 66 44 33
162.687 288.069 518.297 70 43 34
164.029 289.525 520.915 65 38 27
165.278 290.806 523.221 69 42 33
166.577 292.166 525.668 72 47 40
206.096 313.086 563.307 101 96 100
211.258 312.393 562.059 145 150 153
211.141 311.391 560.257 145 150 153
211.314 310.822 559.233 145 150 154
226.698 315.111 566.95 150 155 161
223.813 292.8 526.808 147 151 160
223.801 292.097 525.543 146 150 159
2.83603 315.934 567.411 44 38 40
4.53008 315.407 566.464 104 112 114
7.1646 306.975 551.321 34 28 28
14.796 316.975 569.281 66 61 58
14.8347 306.035 549.632 43 38 34
15.9431 317.155 569.603 63 58 54
16.4439 295.46 530.64 26 20 20
19.1774 288.697 518.494 67 65 78
27.2118 303.14 544.433 65 66 70
27.8454 287.22 515.84 82 83 88
28.2063 285.653 513.026 74 75 80
31.6491 314.795 565.366 78 77 83
32.8137 315.125 565.957 101 99 102
30.4914 287.86 516.99 93 92 90
34.3337 313.506 563.05 81 78 73
34.0046 278.538 500.248 77 79 78
44.1808 307.609 552.458 77 76 71
46.2536 314.186 564.272 90 79 83
46.8116 314.145 564.198 89 76 83
48.8232 305.556 548.773 98 92 104
51.4815 315.112 565.935 102 101 106
52.0565 315.168 566.035 106 106 104
54.4272 312.535 561.307 60 50 51
57.5348 305.208 548.148 53 52 47
62.2037 309.352 555.59 107 122 129
62.602 308.578 554.2 122 135 141
61.7537 301.726 541.894 139 150 152
62.6792 300.968 540.532 142 151 148
63.6001 300.214 539.177 145 148 141
79.4931 316.269 568.013 110 85 88
81.2658 314.341 564.549 106 86 85
82.3772 314.275 564.43 115 95 94
84.9728 303.397 544.894 106 86 85
84.1132 298.414 535.946 104 85 81
88.7555 299.617 538.106 102 72 62
104.17 294.532 528.973 82 50 35
104.981 293.842 527.734 74 40 28
105.77 293.105 526.41 79 46 37
106.555 292.371 525.092 86 56 54
117.24 317.004 569.333 97 72 78
108.592 288.028 517.292 107 86 93
108.984 287.698 516.7 105 84 91
110.564 286.437 514.435 120 97 105
111.34 285.789 513.272 130 108 111
111.731 285.478 512.713 131 110 109
112.534 284.914 511.7 137 117 110
113.303 284.278 510.557 131 111 100
114.075 283.659 509.446 129 109 102
114.457 283.345 508.881 123 103 96
115.76 284.045 510.139 86 63 55
116.518 283.409 508.997 74 50 40
117.273 282.776 507.859 77 55 44
117.682 282.539 507.434 70 51 44
118.55 282.191 506.808 64 48 48
118.926 281.881 506.252 59 44 47
119.678 281.268 505.152 60 44 57
120.424 280.654 504.049 60 46 63
121.168 280.043 502.951 83 71 83
122.831 279.252 501.531 127 113 104
123.558 278.631 500.416 128 111 91
125.42 277.219 497.879 131 110 89
131.259 282.282 506.972 86 63 55
131.021 280.688 504.109 89 69 62
142.611 276.774 497.08 69 50 43
146.861 283.05 508.352 69 57 59
146.572 281.52 505.604 60 44 45
156.384 290.352 521.466 63 49 46
149.266 276.216 496.079 69 50 46
149.909 276.487 496.565 83 60 54
150.525 276.707 496.96 92 65 56
160.266 287.037 515.512 58 38 27
161.343 288.038 517.31 63 41 28
161.469 287.343 516.063 71 47 35
163.925 289.861 520.584 63 39 29
165.222 291.229 523.041 64 41 33
166.448 292.466 525.263 68 44 40
211.13 312.764 561.717 146 151 154
210.966 311.692 559.793 145 150 153
268.264 316.574 568.56 96 103 109
269.534 317.401 570.045 95 102 108
2.26063 315.357 565.36 61 52 53
2.83591 316.487 567.386 42 36 38
14.3194 307.315 550.943 39 34 31
15.4733 308.36 552.815 83 78 75
20.407 316.308 567.065 38 36 49
24.5137 318.108 570.291 61 64 73
24.6858 299.45 536.841 44 49 52
24.3841 289.497 518.998 79 83 86
27.4561 306.41 549.32 83 82 87
28.5014 305.842 548.301 66 67 72
30.4028 314.162 563.217 51 51 59
31.6407 315.277 565.216 79 78 84
32.0219 313.477 561.99 88 87 92
32.8065 315.621 565.832 94 92 95
34.8749 313.874 562.701 77 74 67
31.9607 274.37 491.88 61 66 69
33.4597 278.664 499.578 69 73 74
33.9446 278.545 499.365 82 84 83
44.2794 308.849 553.692 77 80 73
45.8005 315.514 565.641 80 77 70
46.359 315.468 565.558 89 83 85
51.4779 315.656 565.895 102 101 106
54.4716 313.352 561.765 72 57 60
55.0379 313.379 561.813 78 64 64
63.0372 300.639 538.974 143 153 154
63.9545 299.888 537.627 145 155 147
69.0476 315.808 566.168 139 135 123
69.6162 315.82 566.189 110 101 86
83.6448 299.191 536.378 104 86 82
83.9697 298.44 535.031 103 86 79
85.4951 301.938 541.303 100 83 75
106.245 293.488 526.154 80 46 36
107.028 292.754 524.837 88 57 54
117.896 317.806 569.749 89 60 64
119.316 317.04 568.377 103 80 86
109.04 288.361 516.963 109 86 92
109.31 287.713 515.8 108 87 92
109.765 287.553 515.514 107 86 93
110.545 286.904 514.349 108 87 96
111.321 286.253 513.183 114 93 102
111.717 285.954 512.646 122 101 110
112.494 285.326 511.521 129 108 115
114.058 284.127 509.371 116 103 94
114.442 283.816 508.814 125 116 101
114.952 283.819 508.82 129 115 102
116.51 283.898 508.96 102 75 64
117.265 283.263 507.823 78 49 41
118.017 282.632 506.691 78 50 46
118.553 282.703 506.819 75 50 46
118.929 282.393 506.262 72 48 48
119.682 281.782 505.167 72 49 57
120.43 281.171 504.071 63 43 55
121.175 280.562 502.981 70 57 74
121.546 280.259 502.438 77 58 77
122.286 279.655 501.354 83 69 84
123.235 279.534 501.138 103 98 102
123.962 278.913 500.025 126 108 104
124.684 278.295 498.917 137 115 101
125.404 277.68 497.814 132 114 92
127.923 275.603 494.089 91 59 48
131.021 281.191 504.108 89 59 51
128.629 275 493.009 96 67 61
139.952 285.011 510.956 126 117 122
137.467 275.923 494.664 85 76 77
142.678 285.356 511.575 95 85 86
140.236 279.47 501.022 114 100 100
142.137 278.289 498.906 79 54 50
142.11 277.264 497.067 74 49 44
144.258 274.73 492.525 78 54 52
146.74 275.694 494.253 74 64 65
157.112 291.258 522.156 69 50 44
158.386 290.722 521.195 91 60 39
152.842 276.902 496.418 59 46 38
152.209 273.976 491.173 55 37 27
161.427 288.706 517.58 69 43 30
162.197 289.156 518.387 72 44 32
162.969 289.608 519.197 68 41 32
180.089 298.189 534.581 79 49 39
180.977 297.892 534.049 84 48 36
181.421 297.744 533.783 88 50 37
211.001 313.135 561.376 147 152 155
211.337 312.801 560.776 147 152 155
211.671 312.467 560.178 147 152 156
224.962 305.423 547.55 144 151 157
226.113 304.027 545.048 144 153 158
2.25871 315.654 564.88 84 80 79
14.8007 318.215 569.462 37 33 34
16.519 318.417 569.824 60 54 56
20.3888 316.593 566.56 38 34 48
24.5165 318.714 570.356 42 45 52
24.996 310.505 555.666 45 53 55
26.5905 309.669 554.169 81 82 84
25.2305 282.077 504.791 87 87 89
27.1138 285.974 511.765 63 64 68
30.4353 315.062 563.819 91 92 97
28.1599 286.207 512.183 67 68 73
32.8142 316.261 565.966 90 89 94
31.4319 274.538 491.301 70 75 79
33.7692 277.603 496.785 94 96 91
45.7793 315.933 565.38 78 77 72
47.6399 317.032 567.345 112 101 105
48.1469 309.358 553.612 107 97 96
51.9951 309.205 553.338 70 67 74
53.6481 315.677 564.92 80 75 82
54.2083 315.65 564.873 83 74 79
57.5534 312.353 558.972 72 64 61
63.8854 310.538 555.725 148 155 161
63.8507 299.937 536.753 146 156 155
64.3088 299.572 536.1 149 160 156
65.2627 299.031 535.132 148 151 142
82.8668 315.119 563.923 109 88 95
83.5119 299.251 535.526 102 84 80
83.811 298.41 534.02 101 86 79
106.326 294.24 526.558 78 45 28
107.11 293.503 525.239 83 49 40
107.89 292.77 523.927 86 51 49
108.308 292.484 523.416 86 54 55
119.347 317.689 568.522 95 70 74
112.088 286.106 512.001 112 90 102
112.476 285.792 511.439 122 100 112
113.27 285.215 510.408 122 100 112
114.04 284.591 509.291 122 113 108
114.424 284.28 508.734 121 113 102
115.27 283.858 507.978 119 102 92
116.031 283.238 506.87 136 112 102
116.469 283.069 506.568 126 99 90
118.008 283.119 506.656 88 59 53
118.757 282.489 505.529 75 47 43
119.129 282.175 504.967 71 45 44
119.873 281.55 503.848 75 49 50
120.435 281.686 504.093 65 43 46
121.18 281.077 503.002 67 51 64
121.551 280.773 502.459 68 47 64
122.292 280.168 501.375 65 51 68
123.029 279.565 500.296 71 65 79
123.763 278.965 499.222 99 86 93
125.445 278.269 497.977 133 117 102
125.836 278.032 497.553 129 110 93
127.986 276.232 494.332 127 91 77
129.031 275.299 492.662 88 56 45
136.663 280.863 502.62 71 62 63
139.095 273.783 489.948 93 69 67
139.34 273.301 489.087 70 46 44
143.737 275.167 492.426 89 68 67
144.356 275.41 492.861 69 48 47
145.906 276.48 494.776 70 52 52
146.605 276.866 495.466 62 48 48
147.309 277.258 496.168 57 47 48
147.471 276.632 495.047 58 49 50
158.129 291.729 522.065 83 51 40
169.848 310.278 555.259 50 34 19
152.199 275.337 492.731 47 34 26
152.413 274.835 491.832 65 47 37
160.588 288.645 516.545 67 45 32
161.409 289.191 517.522 72 46 33
161.82 289.002 517.184 68 40 29
162.419 289.148 517.446 60 36 26
177.141 296.472 530.552 69 53 53
179.814 298.267 533.765 84 52 41
180.238 298.086 533.441 88 54 42
180.683 297.94 533.179 87 51 37
181.571 297.648 532.657 89 52 36
182.014 297.502 532.396 88 52 36
182.457 297.357 532.135 87 54 35
183.032 297.427 532.261 86 55 35
210.676 313.212 560.51 146 151 154
210.884 312.69 559.576 146 151 154
225.486 308.938 552.861 144 151 157
225.359 308.009 551.198 144 151 157
226.058 304.497 544.914 142 151 156
252.131 318.871 570.637 142 149 155
5.03531 313.308 559.68 64 67 72
5.58709 312.877 558.91 72 72 80
6.63985 309.86 553.52 56 51 58
15.3815 319.023 569.889 38 35 42
15.2023 304.046 543.135 26 23 30
15.6714 302.62 540.587 37 32 39
23.9477 319.303 570.389 70 68 73
24.5196 319.326 570.43 47 46 51
25.2724 283.051 505.631 89 90 92
26.2411 282.597 504.819 82 84 83
30.0826 276.168 493.335 77 78 80
30.4945 275.434 492.023 91 92 94
37.5316 318.45 568.865 105 109 108
45.3199 298.578 533.367 85 75 76
48.0648 309.383 552.668 73 68 64
46.3724 295.097 527.149 45 41 38
49.9278 310.662 554.953 70 68 73
47.0872 289.767 517.628 95 93 98
52.1895 317.675 567.482 104 97 104
50.5087 300.903 537.521 81 68 75
53.6469 316.234 564.907 86 77 82
54.2105 316.228 564.896 79 77 80
56.9171 312.486 558.211 67 53 53
68.5063 317.054 566.371 138 147 152
67.0576 307.805 549.85 129 139 140
70.213 317.091 566.438 135 137 126
82.8339 315.558 563.699 102 85 93
83.9433 315.492 563.581 111 96 101
82.7589 300.941 537.589 102 80 82
83.0763 300.147 536.169 101 79 81
87.8936 300.124 536.129 100 74 75
88.3386 299.816 535.578 100 74 73
91.7413 298.693 533.572 97 69 55
99.4934 311.264 556.029 85 58 51
100.033 311.213 555.938 86 61 56
90.0676 277.131 495.055 83 59 57
90.6295 277.336 495.422 81 57 57
91.1923 277.542 495.789 76 56 58
109.205 292.606 522.699 83 54 58
119.843 318.067 568.181 87 62 65
111.282 287.179 513.005 99 80 84
112.054 286.532 511.848 108 87 94
112.823 285.887 510.697 113 90 100
113.207 285.566 510.123 116 93 103
114.022 285.055 509.21 115 100 105
114.789 284.432 508.097 119 107 109
115.171 284.122 507.543 127 113 113
116.019 283.715 506.816 127 109 105
116.727 282.975 505.494 131 112 105
117.437 282.253 504.204 109 89 80
117.867 282.074 503.885 92 70 59
118.748 282.974 505.493 85 63 52
119.121 282.66 504.932 83 59 49
119.864 282.033 503.812 77 50 41
120.604 281.41 502.698 71 47 45
121.556 281.287 502.48 68 46 49
122.297 280.681 501.396 68 48 57
123.034 280.077 500.317 59 43 56
123.768 279.475 499.243 74 58 71
124.133 279.176 498.708 70 57 67
124.904 278.669 497.803 110 97 104
125.845 278.55 497.589 123 111 113
126.56 277.935 496.492 128 113 108
127.298 277.381 495.502 136 113 95
127.653 277.076 494.956 135 109 92
127.833 276.396 493.742 137 108 90
137.511 289.496 517.144 88 59 43
136.876 280.772 501.559 72 66 66
137.661 279.313 498.952 96 82 79
141.981 275.119 491.46 81 60 59
147.28 283.426 506.301 70 52 50
147.987 282.843 505.258 71 51 52
145.699 276.58 494.071 76 57 59
146.322 276.825 494.509 70 55 58
146.947 277.071 494.948 76 66 67
160.743 289.441 517.044 69 46 40
160.871 288.743 515.798 62 37 30
161.724 289.347 516.877 65 40 33
162.349 289.54 517.222 68 45 39
162.975 289.733 517.567 69 49 42
178.313 298.075 532.469 70 45 41
179.151 298.584 533.378 78 50 39
179.942 298.129 532.565 83 51 36
180.401 298.007 532.346 85 52 37
180.815 297.813 532.001 90 57 42
181.258 297.668 531.741 82 48 36
182.154 297.395 531.253 80 46 34
210.399 314.196 561.266 142 150 153
210.731 313.854 560.656 146 154 156
210.721 313.008 559.144 147 152 155
251.214 319.727 571.147 139 146 152
251.78 319.72 571.134 139 146 152
252.344 319.712 571.121 142 146 155
258.976 319.442 570.637 136 141 147
259.543 319.438 570.629 135 140 146
3.95907 317.291 565.784 49 58 57
7.16557 309.222 551.396 56 49 57
7.72185 309.425 551.759 49 42 49
8.83705 309.849 552.514 48 47 53
23.9503 319.908 570.451 66 61 65
24.5223 319.931 570.492 37 35 38
25.5821 281.404 501.791 61 63 62
29.3442 316.579 564.515 78 80 77
30.7027 287.07 511.895 113 114 118
37.5174 318.898 568.65 97 102 98
39.8154 319.092 568.996 83 94 86
34.7699 274.731 489.894 82 94 94
35.2737 274.841 490.089 80 89 94
35.6847 274.235 489.008 90 94 103
38.5295 277.116 494.146 50 50 52
45.5294 297 529.603 85 80 77
48.1282 310.344 553.397 99 96 91
49.3741 311.223 554.965 95 94 90
52.1919 318.257 567.508 77 67 75
49.2616 293.998 524.249 102 88 88
51.5841 304.618 543.186 90 80 79
52.4534 306.525 546.586 68 68 68
48.9859 283.31 505.191 71 73 72
54.789 307.367 548.088 69 53 54
56.8168 312.493 557.228 64 54 55
58.0178 304.187 542.418 94 117 123
64.439 311.64 555.708 119 124 127
65.4602 298.562 532.388 140 152 152
83.91 315.93 563.357 106 94 96
82.28 301.694 537.972 108 86 89
82.6036 300.913 536.58 110 85 88
88.2048 299.896 534.767 105 79 82
88.647 299.584 534.21 106 77 81
89.0986 299.307 533.716 105 76 78
92.3116 299.346 533.785 96 70 53
98.7212 311.138 554.813 89 61 50
99.767 310.941 554.461 91 63 51
100.339 310.996 554.559 87 59 47
90.4066 277.148 494.203 87 58 52
90.9643 277.342 494.549 78 53 49
108.933 293.806 523.906 81 48 43
109.708 293.078 522.609 77 49 46
110.116 292.774 522.067 78 53 49
121.528 318.585 568.092 91 71 70
124.622 319.237 569.254 98 77 82
125.218 319.306 569.378 100 79 86
125.786 319.304 569.373 103 82 89
126.354 319.301 569.369 105 84 93
113.951 285.385 508.892 109 93 104
114.711 284.747 507.754 111 98 107
115.472 284.121 506.638 122 107 112
116.015 284.211 506.798 127 113 113
116.723 283.47 505.477 125 110 105
117.434 282.749 504.19 125 108 100
118.134 282.013 502.879 126 106 95
119.113 283.145 504.896 111 89 78
118.83 281.282 501.574 95 71 59
119.856 282.517 503.777 86 59 48
120.596 281.892 502.663 76 52 42
121.332 281.27 501.554 70 47 41
121.737 281.047 501.156 69 45 43
122.302 281.194 501.417 74 49 52
123.039 280.588 500.338 67 46 55
123.771 279.983 499.257 69 53 64
124.136 279.681 498.719 62 48 61
124.864 279.079 497.646 76 64 78
125.345 279.041 497.579 99 89 100
139.607 303.565 541.308 136 120 107
137.724 281.983 502.825 115 101 98
142.078 275.798 491.795 76 55 50
142.58 275.818 491.832 86 67 63
145.176 277.019 493.972 69 49 51
146.186 278.001 495.724 63 44 46
146.89 278.396 496.428 64 50 50
154.962 288.816 515.01 73 44 38
160.842 289.206 515.704 64 40 36
161.628 289.691 516.569 64 40 36
177.896 297.91 531.225 74 46 42
179.289 298.461 532.207 80 48 33
179.62 298.126 531.611 84 52 37
180.545 297.899 531.206 87 55 42
180.947 297.688 530.828 80 48 35
181.389 297.542 530.569 83 49 39
181.848 297.424 530.359 82 48 38
213.075 319.613 569.925 137 147 149
210.617 314.245 560.353 145 153 155
210.952 313.91 559.756 144 152 154
225.558 315.556 562.692 146 150 153
249.429 320.205 570.981 143 150 156
259.187 320.273 571.102 137 142 148
259.757 320.272 571.1 136 141 147
263.781 320.305 571.16 108 113 119
264.351 320.305 571.159 101 106 112
264.922 320.304 571.158 96 101 105
6.68023 312.857 556.886 38 31 39
8.30374 311.113 553.782 52 47 54
8.85919 311.179 553.899 64 63 71
13.4991 316.103 562.663 52 52 54
18.7757 310.351 552.424 46 48 63
19.3555 310.793 553.212 42 44 59
21.5516 318.736 567.351 76 76 88
23.9529 320.513 570.513 55 50 54
25.3458 316.54 563.442 69 77 80
27.6449 317.07 564.385 55 56 58
28.7977 317.339 564.863 54 54 54
29.3764 317.491 565.133 79 79 77
26.8393 284.598 506.584 91 91 89
27.4193 285.364 507.949 91 91 91
37.5749 319.956 569.522 70 74 73
36.7023 278.739 496.155 76 74 77
37.0875 277.909 494.678 132 128 129
44.7853 299.635 533.35 79 73 83
48.1954 311.331 554.169 98 97 95
50.0101 319.382 568.501 90 89 85
50.581 319.399 568.53 85 84 82
52.1943 318.839 567.534 74 65 70
49.4999 299.128 532.448 80 70 69
49.1575 293.899 523.141 73 62 56
49.648 293.707 522.798 74 67 59
50.5068 289.641 515.561 80 74 74
50.9506 289.235 514.838 62 54 52
68.7319 319.234 568.236 119 128 137
69.3248 319.349 568.441 118 129 135
69.9182 319.464 568.645 117 127 128
84.1449 307.074 546.592 114 89 93
88.5221 299.695 533.457 104 79 83
88.9613 299.379 532.894 104 78 81
89.4008 299.067 532.339 108 79 81
91.4285 298.737 531.752 102 75 66
94.1542 298.953 532.136 98 70 59
91.3005 277.356 493.694 87 59 58
91.8382 277.49 493.931 85 59 62
108.661 295.011 525.119 119 89 78
109.441 294.286 523.829 83 54 40
121.072 319.449 568.619 80 51 45
122.121 319.219 568.21 85 57 56
122.728 319.32 568.39 88 62 63
124.373 319.167 568.117 99 78 83
126.261 318.199 566.395 100 84 94
126.621 317.682 565.474 97 84 94
127.038 317.312 564.815 96 83 93
114.691 285.206 507.666 105 92 102
115.454 284.584 506.559 117 104 111
116.208 283.952 505.434 122 110 112
116.719 283.966 505.459 121 107 107
117.424 283.228 504.146 123 110 104
118.131 282.508 502.864 133 116 108
118.827 281.775 501.56 127 108 101
119.52 281.046 500.262 93 71 60
120.595 282.393 502.66 86 62 50
121.354 281.822 501.642 85 61 51
121.728 281.528 501.12 71 48 40
125.12 288.186 512.972 65 42 36
122.464 280.918 500.034 66 45 40
123.238 280.403 499.117 80 60 61
124.151 280.213 498.779 64 47 53
124.883 279.618 497.72 63 47 58
125.617 279.039 496.69 83 69 82
138.288 281.587 501.225 120 99 94
139.704 280.406 499.122 117 99 99
142.792 276.722 492.565 80 63 55
143.134 276.431 492.047 62 45 37
144.026 277.201 493.419 67 49 45
145.298 276.805 492.713 59 45 42
147.149 279.384 497.303 55 44 38
147.881 279.828 498.094 65 54 48
161.532 290.035 516.262 63 42 37
177.482 297.746 529.988 77 48 42
179.448 298.372 531.102 86 53 38
179.748 297.989 530.42 83 50 35
180.247 297.938 530.329 85 53 40
181.079 297.562 529.661 82 50 37
181.52 297.417 529.403 82 50 37
213.104 320.226 570.003 137 147 149
213.659 320.204 569.963 144 154 156
214.435 320.513 570.512 144 152 154
214.997 320.5 570.489 144 152 154
215.595 320.541 570.562 148 152 155
216.16 320.533 570.549 147 151 154
216.725 320.525 570.535 147 150 155
217.316 320.556 570.589 146 149 154
217.884 320.552 570.583 145 150 154
218.297 318.657 567.21 143 148 151
224.825 315.879 562.264 148 151 156
225.272 315.717 561.977 147 151 154
248.891 320.818 571.056 140 147 153
249.443 320.794 571.013 142 149 155
259.22 320.885 571.175 139 144 150
259.794 320.888 571.18 138 143 149
265.434 320.115 569.805 93 98 104
266.488 320.013 569.624 111 116 122
7.22774 313.017 556.18 38 31 39
7.76493 312.261 554.837 50 43 50
8.31926 312.25 554.817 53 48 55
9.39397 311.106 552.785 20 18 29
9.92158 310.325 551.397 49 49 57
14.4943 313.858 557.676 43 40 47
16.8568 296.575 526.966 30 24 38
25.3558 317.229 563.665 101 106 110
25.5141 293.152 520.883 60 61 65
28.8285 318.245 565.469 58 58 58
38.7313 320.672 569.783 70 72 71
47.6381 311.863 554.13 85 84 89
50.0113 319.959 568.515 84 82 83
46.1684 292.054 518.933 69 65 66
49.8018 304.766 541.519 63 54 55
50.0892 293.752 521.95 70 65 62
64.7029 301.056 534.927 122 131 140
65.1264 300.542 534.015 133 144 150
69.9173 320.028 568.638 117 127 128
70.5111 320.143 568.843 124 127 120
63.5916 286.417 508.916 155 147 136
71.5794 319.835 568.295 105 86 69
70.8263 311.525 553.529 92 61 41
71.2625 311.014 552.622 98 65 50
74.5265 315.477 560.552 71 43 22
69.4422 291.761 518.412 71 44 27
70.5619 292.105 519.024 75 46 48
73.2512 301.025 534.873 72 43 47
78.4674 311.107 552.786 101 72 68
78.8871 310.583 551.856 110 80 78
83.8813 308.661 548.441 117 92 95
88.8344 299.483 532.134 99 77 80
89.2502 299.094 531.442 106 81 84
89.6874 298.781 530.886 104 80 80
91.7384 298.548 530.471 105 78 71
92.6091 297.937 529.385 102 75 64
93.1391 297.939 529.39 97 69 58
93.5804 297.66 528.893 102 74 62
94.4881 298.858 531.023 100 70 59
94.4604 297.102 527.902 100 71 57
98.6607 297.037 527.787 81 55 56
112.461 287.797 511.37 85 66 70
107.507 273.875 486.631 90 74 77
108.027 273.96 486.783 90 75 80
108.327 273.488 485.944 84 71 78
126.987 317.75 564.59 90 77 87
114.672 285.664 507.579 105 89 100
116.184 284.398 505.329 114 101 108
116.643 284.285 505.129 114 102 106
117.421 283.726 504.135 120 108 108
118.127 283.002 502.849 128 114 111
118.823 282.268 501.545 133 118 113
119.516 281.538 500.248 130 111 104
120.243 280.901 499.115 112 90 77
121.72 282.009 501.084 83 61 48
122.284 282.156 501.345 83 61 50
123.032 281.573 500.309 72 52 43
123.776 280.992 499.277 78 59 53
124.165 280.743 498.835 70 50 49
124.901 280.156 497.792 66 47 53
125.646 279.599 496.802 69 51 63
126.014 279.315 496.297 75 57 71
142.576 281.651 500.447 95 76 78
142.89 277.404 492.901 73 56 46
144.073 277.785 493.579 58 41 33
144.686 278.015 493.988 58 43 36
147.354 280.27 497.995 66 56 47
148.746 279.146 495.997 75 47 35
161.082 289.741 514.823 64 43 38
175.868 300.041 533.124 58 41 31
177.141 297.702 528.969 78 48 40
178.8 299.596 532.334 87 53 41
179.454 298.913 531.121 85 52 37
179.547 298.185 529.827 81 48 33
180.391 297.831 529.197 80 48 35
180.769 297.582 528.755 82 50 37
209.675 318.186 565.366 149 154 158
210.026 315.319 560.27 141 151 153
210.361 314.983 559.673 143 151 153
212.112 313.436 556.925 146 149 154
212.361 312.982 556.119 145 150 154
248.307 321.372 571.025 140 147 153
248.905 321.407 571.087 140 147 153
249.459 321.386 571.05 142 149 155
220.481 281.476 500.137 141 148 156
221.026 281.533 500.239 143 147 156
5.55867 313.509 556.067 56 55 61
6.66449 313.231 555.574 52 47 54
7.2221 313.328 555.746 55 50 57
9.94352 311.564 552.617 50 48 59
10.4838 311.204 551.98 66 65 73
13.572 318.942 565.703 62 61 67
13.9536 314.794 558.346 56 55 63
14.7306 307.707 545.776 77 74 81
23.0939 317.682 563.469 93 92 97
23.7187 318.508 564.933 81 76 80
24.2928 318.632 565.153 78 73 77
26.0181 319.004 565.814 27 26 34
26.0549 293.899 521.285 59 59 61
43.4333 302.424 536.407 91 86 82
43.7341 300.805 533.535 85 83 86
47.702 312.836 554.874 96 97 102
47.61 282.653 501.338 47 46 28
50.9922 293.465 520.516 81 77 76
57.6612 312.701 554.635 89 115 116
58.2321 312.79 554.791 88 113 117
64.5397 300.83 533.578 120 127 137
64.9687 300.347 532.722 131 140 147
69.9039 320.535 568.529 137 145 147
71.5959 320.477 568.426 99 78 61
70.751 311.747 552.941 100 69 49
71.1869 311.236 552.035 93 62 44
69.2459 291.453 516.947 64 36 24
75.9653 315.033 558.769 68 39 41
73.2154 290.799 515.787 92 63 57
81.9781 306.196 543.097 114 90 88
82.412 305.792 542.379 109 85 85
83.8571 309.12 548.283 114 88 89
89.1712 299.36 530.972 98 75 81
89.5678 298.913 530.178 103 81 84
90.0038 298.601 529.625 105 80 83
90.4281 298.254 529.01 103 79 77
90.8499 297.903 528.387 106 82 80
93.0912 298.315 529.118 109 82 73
93.976 297.767 528.145 101 73 61
94.4142 297.484 527.643 100 72 58
95.2881 296.92 526.643 99 70 54
97.5656 297.443 527.572 93 63 55
121.134 320.75 568.91 92 59 44
122.694 320.369 568.234 83 49 40
112.456 288.296 511.348 85 64 63
114.747 287.632 510.17 88 72 82
114.779 286.44 508.056 100 83 93
128.04 318.125 564.255 97 81 91
128.566 318.033 564.091 97 84 94
116.164 284.855 505.243 104 93 101
116.915 284.225 504.127 103 92 100
117.419 284.224 504.125 113 102 108
118.124 283.497 502.835 123 111 115
118.82 282.762 501.531 118 106 106
119.513 282.03 500.234 133 118 115
120.202 281.303 498.943 137 117 108
120.933 280.685 497.847 122 102 91
121.623 279.98 496.598 100 81 66
123.459 281.906 500.012 77 58 44
123.897 281.766 499.764 69 49 38
124.182 281.279 498.901 76 56 47
124.927 280.713 497.898 70 49 46
125.296 280.425 497.386 79 57 60
126.035 279.858 496.381 85 62 72
126.772 279.294 495.381 69 58 75
132.661 291.131 516.375 78 70 91
134.845 293.64 520.825 90 83 99
143.608 278.332 493.674 76 58 48
144.042 278.217 493.471 62 45 37
144.675 278.486 493.948 58 44 35
166.724 311.365 552.265 60 35 15
161.364 291.696 517.378 62 43 37
160.774 289.702 513.84 63 44 38
161.066 289.304 513.135 65 46 40
176.8 299.446 531.123 74 47 38
179.184 298.111 528.755 81 48 33
180.575 297.79 528.186 82 50 37
180.945 297.531 527.728 75 46 32
209.574 318.598 565.094 150 154 157
209.898 315.687 559.93 139 149 150
210.234 315.351 559.334 143 151 154
210.569 315.016 558.739 147 152 156
211.22 315.154 558.985 149 152 157
211.783 315.16 558.995 149 152 157
212.342 315.161 558.997 147 151 154
212.902 315.162 558.999 146 150 153
213.461 315.163 559.001 146 151 154
214.021 315.164 559.002 146 151 154
214.58 315.165 559.004 144 147 152
215.281 315.373 559.373 145 148 153
244.399 317.606 563.334 142 149 155
244.917 317.548 563.23 141 148 154
245.403 317.448 563.054 141 148 154
246.171 317.712 563.522 142 149 155
265.764 320.966 569.294 126 129 134
267.211 320.653 568.738 83 86 91
5.55102 313.632 555.301 19 16 23
6.10649 313.651 555.335 57 54 61
6.65665 313.417 554.921 50 45 52
7.23168 314.3 556.484 73 68 75
7.7709 313.611 555.264 49 44 51
10.8806 307.377 544.226 25 24 32
20.6427 299.055 529.491 43 43 51
24.2895 319.152 565.075 76 71 75
24.8622 305.372 540.677 22 19 26
25.392 305.244 540.449 28 23 30
26.4216 304.657 539.41 90 89 94
27.965 303.85 537.982 72 72 72
33.9195 277.747 491.764 64 67 74
43.3539 314.038 556.02 109 98 96
44.9448 291.883 516.793 82 81 86
52.3512 321.505 569.24 59 51 49
52.9412 321.632 569.465 40 37 28
47.5242 279.7 495.222 55 48 42
57.5769 312.798 553.824 88 116 117
58.1267 312.777 553.787 100 125 129
71.6157 321.134 568.583 103 80 64
70.6734 311.957 552.335 104 73 53
71.1066 311.436 551.412 92 61 43
68.9351 292.845 518.496 68 39 23
69.0507 291.147 515.489 64 36 25
75.5505 316.193 559.835 61 32 28
76.4583 315.321 558.29 56 27 31
71.3692 292.2 517.354 56 28 27
72.8336 293.936 520.427 68 39 35
89.0197 299.382 530.07 92 73 77
89.4568 299.072 529.521 99 80 84
91.2776 298.103 527.806 118 97 96
92.3539 298.171 527.926 118 94 90
93.0468 298.701 528.865 119 94 87
94.7736 302.526 535.637 111 87 75
93.9275 298.141 527.873 99 73 60
94.8028 297.575 526.872 100 73 56
95.2391 297.293 526.372 99 70 54
101.409 311.392 551.335 95 63 52
105.085 310.852 550.379 83 54 48
104.85 290.393 514.156 136 127 128
122.187 321.095 568.514 102 69 54
123.226 320.841 568.064 85 51 41
113.229 288.173 510.224 80 60 59
114.774 286.936 508.034 91 72 78
127.989 318.563 564.031 92 72 81
129.642 318.468 563.864 98 85 95
130.193 318.437 563.808 97 84 94
116.896 284.681 504.042 101 88 98
117.643 284.053 502.93 108 96 106
118.016 283.741 502.377 113 102 110
118.759 283.117 501.273 118 107 113
119.511 282.525 500.225 118 106 108
120.2 281.796 498.933 137 117 116
120.903 281.111 497.721 134 115 109
121.591 280.403 496.467 135 117 105
122.291 279.734 495.283 101 82 68
123.693 281.802 498.944 88 69 55
124.944 281.248 497.964 72 49 41
125.316 280.966 497.464 77 53 49
126.055 280.399 496.459 86 61 64
127.159 279.551 494.96 69 58 74
127.907 279.026 494.029 61 55 69
128.639 278.471 493.047 75 71 85
133.396 276.076 488.805 145 111 99
138.69 283.912 502.68 118 89 75
143.636 278.881 493.772 60 42 32
144.838 279.296 494.507 69 55 46
144.988 278.634 493.335 56 46 36
146.808 281.174 497.833 64 54 44
155.954 290.804 514.883 54 38 22
160.468 289.662 512.86 63 46 39
160.751 289.249 512.129 66 47 41
176.253 299.049 529.48 82 52 42
176.756 299.003 529.399 85 51 42
181.342 298.712 528.884 73 44 30
182.137 299.149 529.657 72 44 32
211.782 315.717 558.992 148 151 156
212.339 315.715 558.988 147 151 154
212.972 315.825 559.184 147 151 154
213.563 315.872 559.266 146 151 154
214.028 315.733 559.021 146 151 154
214.695 315.892 559.302 145 148 153
215.437 316.16 559.777 145 148 153
216.612 317.061 561.372 146 149 154
217.561 317.628 562.375 146 149 154
246.012 321.008 568.361 144 149 155
246.521 320.931 568.225 142 149 155
263.831 322.651 571.269 140 143 150
265.789 321.565 569.347 132 135 140
267.717 321.147 568.606 121 124 129
268.198 321.042 568.421 122 125 130
5.69919 322.574 570.124 40 38 43
6.26833 322.534 570.054 42 40 45
9.98575 313.997 554.964 43 43 55
15.5941 315.223 557.132 62 59 68
24.78 304.902 538.889 45 40 46
26.7579 322.233 569.522 37 32 38
25.8116 304.361 537.934 42 40 45
26.3254 304.085 537.446 86 85 90
37.5733 317.41 560.997 47 56 63
39.44 310.043 547.976 58 53 49
47.7354 321.646 568.483 63 68 74
43.8922 285.552 504.69 62 60 61
52.9473 322.239 569.531 19 16 9
58.0418 312.873 552.979 117 136 142
58.5908 312.853 552.942 127 140 146
75.8824 318.144 562.294 54 24 22
74.464 296.807 524.583 64 37 28
89.33 299.176 528.77 100 85 90
90.2734 293.648 518.999 117 97 98
90.6475 293.18 518.172 117 97 96
91.0204 292.713 517.347 119 99 92
93.9036 298.592 527.738 99 75 65
93.7691 296.499 524.038 101 77 65
94.7546 297.95 526.604 103 77 64
95.1902 297.667 526.102 98 70 56
105.335 310.52 548.819 88 58 48
105.973 310.782 549.283 84 55 47
106.613 311.045 549.747 86 58 54
107.253 311.308 550.212 94 70 68
127.872 323.106 571.064 86 62 58
128.457 323.141 571.127 85 61 59
116.657 285.835 505.191 93 75 87
130.703 318.87 563.576 97 81 92
117.624 284.508 502.846 104 90 103
118.368 283.883 501.74 110 98 108
118.739 283.571 501.189 113 101 111
118.923 282.818 499.858 119 108 116
119.51 283.024 500.222 122 109 118
120.921 281.651 497.797 130 114 117
121.147 281.022 496.685 133 115 115
121.593 280.904 496.475 135 117 115
121.91 280.493 495.749 131 114 107
122.295 280.239 495.301 136 117 110
125.311 280.339 495.477 74 54 43
131.17 291.147 514.578 74 54 47
131.188 290.049 512.638 67 47 46
127.179 280.09 495.037 67 51 52
131.05 286.387 506.167 67 54 61
128.632 276.828 489.272 71 65 79
129.144 276.876 489.357 75 69 83
129.716 277.053 489.67 83 75 88
132.055 274.791 485.671 131 108 100
139.252 283.513 501.087 125 97 75
141.886 285.792 505.115 88 63 41
147.179 295.401 522.098 82 59 41
150.941 296.641 524.29 96 78 68
143.703 279.505 494.003 61 41 32
143.991 279.106 493.297 75 56 49
153.901 296.286 523.663 59 44 37
155.891 289.293 511.302 58 37 32
160.254 288.865 510.545 65 48 41
160.482 288.358 509.65 63 44 38
168.253 293.923 519.486 51 31 24
175.177 296.857 524.671 87 51 39
176.338 297.932 526.571 90 54 40
177.975 299.804 529.879 85 49 33
212.901 316.278 558.996 146 150 153
214.035 316.302 559.039 145 150 153
214.723 316.493 559.376 145 148 153
215.752 317.183 560.596 147 148 153
217.327 318.671 563.225 147 148 153
217.39 317.94 561.933 147 148 153
220.547 297.923 526.555 147 154 162
245.97 321.522 568.264 145 150 156
264.365 323.177 571.189 131 134 141
265.508 323.177 571.19 126 129 134
265.814 322.165 569.401 135 138 143
268.223 321.641 568.474 122 126 129
268.449 320.553 566.551 124 128 131
268.952 320.477 566.418 126 130 133
269.455 320.402 566.286 117 121 124
6.26788 323.081 570.013 73 71 76
7.40602 323.016 569.899 43 42 48
9.13201 323.615 570.956 62 60 73
9.39581 313.378 552.893 33 33 45
9.94929 313.403 552.938 29 29 39
10.4763 312.634 551.581 78 78 86
12.4324 306.486 540.735 19 21 33
15.0152 315.32 556.32 29 27 40
16.1166 315.108 555.946 60 59 67
26.7611 322.841 569.59 27 22 26
27.396 323.615 570.954 48 46 51
27.9662 323.609 570.945 86 85 90
28.2661 302.394 533.514 28 26 29
29.278 301.829 532.518 41 36 42
30.793 301.028 531.104 98 92 96
35.5824 305.685 539.322 31 39 42
37.2363 310.485 547.789 81 92 98
46.7231 323.073 569.999 98 94 95
45.6014 311.518 549.612 65 66 70
47.7635 322.403 568.818 92 97 101
43.4044 289.533 510.824 78 83 86
43.4859 286.703 505.832 58 60 59
57.9572 312.969 552.172 126 139 145
58.5054 312.949 552.136 120 127 135
70.9611 311.899 550.284 85 54 36
71.7137 308.043 543.481 82 52 41
74.2756 314.285 554.495 58 29 23
75.1946 313.495 553.101 56 26 28
75.6525 313.102 552.406 56 26 28
72.9003 295.246 520.904 63 35 32
73.6528 296.178 522.548 62 35 28
74.4223 297.165 524.289 61 34 25
85.8688 295.077 520.604 119 100 106
91.694 300.523 530.214 113 98 101
92.4236 301.173 531.361 113 97 100
95.0633 304.525 537.274 108 89 83
93.855 298.965 527.465 100 80 73
94.7094 298.335 526.353 110 86 76
95.5808 297.771 525.359 99 71 59
96.0153 297.49 524.863 96 68 56
96.8818 296.93 523.874 104 71 64
116.638 286.292 505.106 93 72 81
130.64 319.279 563.306 94 74 85
131.19 319.248 563.25 89 71 83
117.604 284.963 502.761 94 76 88
118.348 284.336 501.655 104 88 101
118.719 284.024 501.104 103 90 100
118.969 283.427 500.051 106 93 103
119.509 283.522 500.219 107 93 106
120.924 282.157 497.81 122 109 119
122.3 280.745 495.319 135 119 119
123.662 279.349 492.856 121 103 91
130.974 290.087 511.802 84 64 53
127.201 280.635 495.125 79 59 50
131.275 286.281 505.086 70 55 58
128.858 277.804 490.131 59 48 64
130.179 276.448 487.738 84 74 82
130.61 276.327 487.525 95 84 88
131.028 276.182 487.268 106 94 94
131.462 276.071 487.072 116 105 103
132.161 275.498 486.062 133 118 113
147.824 295.128 520.695 83 60 44
146.617 279.905 493.837 74 44 42
147.044 279.778 493.612 85 51 50
158.485 295.595 521.519 61 42 36
158.469 294.596 519.757 58 34 30
160.418 291.529 514.346 62 47 40
176.35 298.478 526.606 86 50 36
178.005 300.384 529.968 81 48 31
190.146 319.919 564.434 83 50 33
215.823 317.848 560.781 147 148 153
216.611 318.183 561.372 147 148 153
245.928 322.036 568.168 145 150 156
215.34 281.331 496.353 142 149 155
215.375 280.73 495.293 141 148 154
265.504 323.744 571.182 134 137 142
265.839 322.764 569.454 126 129 134
267.771 322.348 568.72 127 130 135
268.249 322.239 568.528 132 136 139
268.42 321.084 566.49 123 127 130
268.923 321.009 566.357 124 128 131
5.01265 316.354 557.162 37 36 41
7.40569 323.572 569.874 41 40 48
7.74345 314.163 553.303 54 52 63
8.85502 314.353 553.638 49 49 59
14.9894 315.333 555.364 30 29 45
17.7364 314.82 554.461 58 59 64
18.2845 314.715 554.275 61 60 66
18.8323 314.61 554.09 64 63 71
26.7682 323.497 569.741 56 52 53
27.3499 323.641 569.995 86 84 87
27.9697 324.221 571.016 77 76 81
29.1716 301.263 530.584 35 30 34
33.4886 301.929 531.756 71 66 60
40.2218 308.73 543.734 73 74 79
43.0806 309.744 545.52 52 40 24
45.3243 313.954 552.934 60 56 57
47.3294 323.893 570.439 104 104 106
46.4235 313.911 552.859 76 80 81
58.4631 313.274 551.737 124 124 132
70.4491 312.618 550.581 93 61 46
75.761 316.413 557.266 54 24 24
76.3039 316.355 557.163 55 25 27
76.0745 313.118 551.463 60 31 33
76.5842 312.948 551.164 61 33 32
85.139 302.243 532.31 112 82 82
92.2538 301.15 530.385 114 103 107
91.8581 298.145 525.092 109 97 99
92.3184 297.937 524.725 115 101 101
92.8683 298.018 524.869 108 93 90
91.5731 292.211 514.641 103 85 81
94.2451 299.057 526.698 103 84 78
94.6607 298.707 526.082 105 85 78
95.5364 298.158 525.114 105 81 71
96.4023 297.59 524.114 102 75 68
96.8376 297.318 523.635 101 72 66
98.991 300.678 529.554 100 70 62
99.252 299.868 528.126 101 68 61
109.244 284.635 501.298 119 102 86
117.584 285.417 502.676 94 72 84
132.213 319.56 562.809 96 76 87
118.328 284.79 501.571 95 75 87
119.069 284.165 500.471 104 86 98
119.439 283.855 499.924 101 85 98
120.03 284.07 500.303 106 94 108
131.385 302.131 532.113 135 122 132
126.12 282.031 496.713 123 110 94
127.222 281.176 495.207 86 64 50
131.536 288.466 508.045 75 55 46
131.312 286.866 505.228 73 54 48
131.762 276.165 486.382 93 84 87
139.641 280.27 493.61 138 111 90
143.405 279.911 492.979 57 38 23
153.221 298.047 524.919 64 46 32
144.871 280.842 494.619 94 76 62
148.139 280.477 493.975 48 27 24
159.416 296.88 522.863 66 42 38
159.395 295.87 521.086 59 38 33
160.689 295.377 520.217 70 52 48
160.401 293.895 517.608 65 50 45
175.634 297.792 524.471 81 45 29
176.431 298.252 525.28 82 51 33
177.215 298.689 526.05 81 50 32
245.887 322.549 568.072 143 147 156
218.2 282.963 498.354 140 147 155
219.214 283.63 499.529 140 147 155
264.889 324.261 571.088 135 138 143
265.456 324.256 571.079 136 139 144
265.864 323.364 569.508 133 136 141
266.354 323.267 569.337 99 103 106
267.801 322.954 568.785 127 131 134
268.283 322.849 568.601 128 132 135
268.765 322.745 568.418 128 132 135
268.894 321.54 566.296 127 131 134
269.397 321.465 566.163 126 130 133
5.56209 316.483 556.41 43 41 44
8.54282 324.058 569.727 41 43 55
9.13764 324.957 571.308 26 29 36
11.5313 312.443 549.306 43 47 56
14.5636 306.914 539.587 13 15 30
23.2949 288.148 506.593 66 61 58
23.7593 287.639 505.698 78 74 75
32.5524 298.747 525.227 46 38 35
33.4281 301.914 530.796 36 31 28
33.9422 301.768 530.538 42 40 43
40.2076 313.399 550.988 96 95 101
39.8018 306.043 538.055 112 115 124
39.8824 302.574 531.957 120 124 133
42.6552 315.205 554.163 88 91 84
40.9502 298.726 525.191 48 45 28
41.9784 294.885 518.438 45 37 35
46.8031 324.768 570.975 89 85 86
47.6173 318.756 560.405 59 64 57
48.1553 318.609 560.147 83 85 74
43.913 287.201 504.928 51 49 37
44.4062 287.126 504.797 28 19 10
49.7142 310.85 546.506 74 60 73
49.7603 307.757 541.068 57 46 62
50.6938 310.159 545.291 114 112 125
57.3546 319.949 562.503 115 128 136
58.1459 321.214 564.726 119 128 135
57.5659 314.952 553.718 134 137 146
58.0731 314.701 553.276 128 127 135
59.745 288.092 506.496 141 142 146
60.161 287.661 505.736 111 111 119
76.201 316.485 556.412 59 29 29
76.0484 313.562 551.274 61 32 34
76.6256 313.669 551.462 63 35 34
77.9233 316.703 556.796 58 30 27
74.6456 299.108 525.863 57 33 23
75.2575 299.451 526.466 54 30 20
84.9392 305.889 537.783 108 78 67
85.2516 305.083 536.366 115 85 77
85.7969 305.115 536.424 114 84 82
86.6435 304.322 535.029 118 89 91
87.4883 303.542 533.657 114 89 92
88.3118 302.707 532.19 122 103 105
92.8417 300.153 527.7 110 98 102
94.1965 299.429 526.427 108 90 88
95.0478 298.797 525.315 109 90 84
95.4828 298.515 524.82 107 86 81
93.8797 291.899 513.188 108 85 79
96.3542 297.965 523.853 111 86 82
96.7896 297.693 523.375 110 82 79
97.3154 297.701 523.389 107 78 74
97.6494 297.126 522.377 103 74 70
99.7071 301.773 530.548 99 70 64
99.969 300.965 529.127 96 67 59
109.749 285.147 501.318 115 101 90
111.991 287.041 504.648 128 105 87
112.783 287.773 505.934 129 104 82
129.417 316.043 555.636 86 61 67
118.119 285.999 502.815 95 69 80
130.538 313.401 550.991 97 74 84
119.049 284.618 500.387 104 82 94
119.418 284.306 499.839 102 85 95
120.155 283.684 498.746 93 85 96
120.887 283.065 497.658 107 99 114
121.618 282.452 496.579 114 102 122
131.301 300.041 527.503 130 118 132
131.258 298.743 525.221 142 131 139
123.915 280.907 493.864 141 130 134
127.981 281.163 494.314 88 68 57
138.687 301.195 529.532 74 53 50
128.942 278.966 490.45 74 54 53
129.519 279.153 490.78 74 54 55
132.129 278.449 489.542 69 58 66
132.886 276.967 486.937 88 83 89
139.614 280.708 493.514 142 116 99
143.398 280.391 492.955 70 52 30
144.537 280.689 493.479 69 50 33
155.063 294.103 517.064 50 32 28
158.584 296.824 521.846 60 39 34
158.583 295.849 520.132 63 39 35
158.582 294.88 518.429 60 39 34
160.536 296.574 521.407 64 45 41
160.27 295.125 518.859 68 50 46
189.724 324.183 569.946 86 50 36
177.095 299.012 525.693 80 51 33
245.845 323.062 567.976 144 148 157
218.669 284.069 499.423 140 147 155
264.913 324.861 571.139 134 137 142
265.48 324.856 571.131 134 137 142
265.889 323.964 569.561 131 134 139
266.384 323.873 569.402 90 93 98
267.35 323.664 569.034 128 132 135
252.507 305.046 536.301 128 132 135
250.415 301.877 530.73 129 133 136
251.41 302.436 531.713 129 133 136
269.127 322.386 566.788 128 132 135
250.663 299.637 526.792 127 131 134
250.654 298.998 525.669 126 130 133
6.7267 319.518 560.76 78 77 83
7.40503 324.682 569.823 40 40 50
19.8618 314.479 551.916 65 66 68
21.9322 320.547 562.565 66 62 59
22.3721 289.82 508.64 88 81 75
22.8853 289.88 508.744 85 77 74
23.36 289.461 508.009 74 69 66
33.4981 303.078 531.907 46 42 43
34.6594 303.936 533.413 64 67 74
34.4966 280.901 492.986 21 26 22
34.9235 280.371 492.057 34 35 37
35.4808 280.89 492.967 59 60 65
39.6645 309.709 543.544 111 114 123
39.8908 303.17 532.068 98 105 115
40.9119 295.187 518.058 33 31 16
46.2395 325.389 571.063 86 80 80
43.9325 287.833 505.153 32 30 15
44.3559 287.305 504.225 25 18 8
50.2441 314.716 552.332 27 16 30
50.3076 295.622 518.821 136 140 141
58.1323 321.703 564.594 132 135 144
57.5208 315.258 553.284 131 130 138
58.8839 299.677 525.938 137 140 147
58.4532 289.724 508.471 121 130 129
59.0083 289.954 508.875 138 144 144
71.3344 308.035 540.607 66 36 28
76.2043 314.757 552.404 59 30 32
77.145 316.35 555.2 66 37 39
77.1198 313.988 551.054 54 28 27
75.5022 305.222 535.669 61 36 31
79.3851 318.659 559.251 58 33 26
77.5643 309.172 542.603 57 34 26
78.0984 309.139 542.545 51 30 27
85.7854 305.611 536.352 101 72 66
86.6169 304.763 534.865 116 88 87
87.4732 304.023 533.565 117 91 92
88.2966 303.187 532.099 132 110 112
90.4865 301.622 529.351 117 105 107
92.0293 299.753 526.071 116 105 111
92.7454 300.369 527.152 109 96 103
95.4935 307.521 539.705 110 95 102
95.419 305.555 536.255 109 94 99
94.9991 299.168 525.046 112 94 92
95.8678 298.605 524.056 110 89 88
96.3033 298.331 523.576 111 90 89
97.1807 297.812 522.665 109 83 82
97.6011 297.501 522.119 106 80 79
109.624 285.323 500.746 109 101 99
112.556 287.7 504.919 116 99 79
112.827 287.105 503.874 123 101 80
113.373 287.211 504.061 129 102 83
113.956 287.411 504.411 128 101 84
114.391 287.237 504.106 115 87 73
133.081 320.067 561.723 90 63 68
119.034 285.08 500.321 100 75 81
119.774 284.464 499.239 98 86 88
120.158 284.192 498.762 89 80 81
120.897 283.586 497.698 97 87 96
121.671 283.071 496.795 103 92 109
124.653 280.839 492.877 138 129 134
