ply
format ascii 1.0
element vertex 1426
property float x
property float y
property float z
property uchar red
property uchar green
property uchar blue
end_header
48.1002 308.598 540.646 48 43 39
43.9191 278.642 488.166 45 40 46
57.0433 304.409 533.307 108 103 107
66.9671 318.652 558.26 116 119 126
72.0424 314.017 550.14 84 57 38
77.6039 314.268 550.58 63 38 34
78.002 313.656 549.507 59 34 27
84.8968 306.811 537.515 101 80 63
85.4678 306.931 537.727 100 77 63
85.7546 306.037 536.159 98 74 64
86.1424 305.511 535.239 104 79 74
86.6139 305.287 534.846 110 85 80
90.7634 301.313 527.884 115 101 101
91.2753 296.126 518.796 112 99 108
91.4005 294.857 516.573 114 98 109
96.1885 298.498 522.952 111 89 92
96.603 298.164 522.367 110 88 90
96.9816 297.723 521.594 113 88 91
97.3812 297.351 520.942 113 89 89
97.9139 297.387 521.006 109 85 83
100.398 300.143 525.833 99 72 65
100.838 299.888 525.386 98 69 61
104.128 297.285 520.827 93 64 50
104.363 296.473 519.403 88 58 47
107.838 293.216 513.699 82 54 51
109.949 290.653 509.208 91 83 104
110.752 291.426 510.562 97 93 108
123.859 324.419 568.364 107 104 115
124.406 324.365 568.269 113 108 114
118.646 306.546 537.051 106 99 91
126.148 324.461 568.437 106 100 86
114.216 287.301 503.335 130 104 91
115.49 286.715 502.309 104 77 68
116.293 286.222 501.445 80 52 48
116.699 285.989 501.036 81 53 49
117.105 285.756 500.628 77 49 46
117.51 285.523 500.22 75 47 46
117.914 285.291 499.813 79 51 50
118.319 285.065 499.418 87 58 60
118.722 284.832 499.01 92 66 67
119.119 284.59 498.586 88 67 66
119.543 284.414 498.277 96 81 76
119.933 284.158 497.828 88 77 73
120.335 283.931 497.431 92 80 80
129.212 279.469 489.615 80 57 43
129.995 279.05 488.88 84 60 50
134.158 284.774 498.908 64 43 48
132.145 278.432 487.796 71 51 60
158.792 289.681 507.504 68 47 44
158.871 288.903 506.142 65 44 39
164.605 293.717 514.576 47 24 18
165.717 294.781 516.44 51 30 25
174.288 298.854 523.575 83 47 33
174.527 298.369 522.725 83 50 33
175.048 298.366 522.72 82 49 32
184.792 301.474 528.166 93 74 67
197.13 317.074 555.496 54 30 26
197.11 316.151 553.879 54 29 24
206.242 320.011 560.641 58 38 37
208.445 320.815 562.049 72 64 62
218.575 296.452 519.367 145 152 162
218.293 295.368 517.468 146 153 163
223.768 294.405 515.781 142 149 157
223.826 293.804 514.728 141 148 156
4.55296 325.537 569.325 27 26 32
5.61276 321.05 561.478 63 61 66
12.1051 314.734 550.432 96 95 109
12.6392 314.333 549.73 102 104 119
13.2078 314.786 550.523 59 58 76
17.3211 319.602 558.946 27 28 30
31.7235 324.033 566.696 96 97 91
35.3435 326.073 570.262 97 94 101
47.5311 295.52 516.828 110 116 130
47.1033 277.764 485.776 107 112 118
47.4822 277.141 484.687 125 129 138
57.4671 304.363 532.295 116 116 118
58.6807 305.139 533.653 115 118 125
66.1379 302.647 529.293 95 76 59
70.3754 314.49 550.006 87 54 49
70.9191 314.463 549.958 81 52 46
72.0056 314.406 549.859 81 54 35
77.4864 314.342 549.747 62 37 33
77.8473 313.582 548.418 55 32 26
90.4049 302.407 528.874 110 88 90
90.772 301.87 527.934 114 94 95
97.3089 300.868 526.183 115 94 99
97.6098 300.176 524.973 117 94 100
98.2501 297.35 520.029 109 85 83
99.4857 297.936 521.055 105 80 75
101.039 299.453 523.708 102 75 66
103.352 297.073 519.546 99 71 59
104.199 296.527 518.59 89 61 50
104.556 296.069 517.789 85 57 46
104.912 295.615 516.995 95 66 58
107.614 293.119 512.631 79 48 43
121.289 324.194 566.977 76 58 74
121.799 324.041 566.709 75 60 79
122.308 323.889 566.444 68 56 76
123.057 324.372 567.287 75 66 83
110.93 291.064 509.036 90 82 97
118.288 307.548 537.865 104 98 102
118.722 307.28 537.396 104 100 99
119.155 307.013 536.929 107 104 99
119.925 307.61 537.973 115 108 100
120.342 307.302 537.434 116 103 97
120.758 306.994 536.895 119 102 95
121.173 306.686 536.358 118 99 93
116.397 286.98 501.893 107 83 73
117.005 286.011 500.2 79 52 43
117.421 285.807 499.843 86 59 52
117.813 285.546 499.387 89 62 55
118.364 285.671 499.605 81 53 49
118.764 285.432 499.187 77 49 45
119.163 285.194 498.771 84 59 54
119.466 284.728 497.956 81 62 55
119.798 284.333 497.264 83 66 59
120.639 283.973 496.635 90 74 74
121.086 283.858 496.434 93 76 82
121.531 283.737 496.223 98 82 92
134.721 284.356 497.304 62 40 43
135.103 284.113 496.881 66 45 50
135.484 283.872 496.458 70 51 57
158.262 290.148 507.434 66 45 44
158.371 289.42 506.16 71 47 45
164.067 294.188 514.501 57 32 27
164.947 294.843 515.646 50 26 22
174.035 298.943 522.816 84 51 36
174.4 298.673 522.343 83 51 36
197.201 317.744 555.696 54 30 26
197.291 316.996 554.388 54 29 24
206.207 320.518 560.548 53 32 29
228.975 311.101 544.079 145 152 162
228.833 310.172 542.454 145 152 162
0.571219 327.309 571.425 35 37 34
13.8142 316.621 552.766 70 69 85
25.0695 319.218 557.301 84 76 74
34.2132 326.737 570.426 84 83 89
41.3427 320.127 558.887 139 143 154
48.4846 312.154 544.967 129 135 133
48.688 296.79 518.144 98 111 117
47.0864 278.15 485.602 107 111 120
54.1691 310.389 541.886 123 127 138
55.1802 301.126 525.715 128 133 129
58.2088 305.997 534.218 135 136 141
59.4901 307.098 536.14 129 131 143
69.4793 315.965 551.621 97 62 40
69.9315 315.518 550.84 99 60 43
70.8781 314.83 549.64 85 56 52
71.9657 314.781 549.554 78 51 30
77.3692 314.415 548.916 61 35 34
77.6796 313.454 547.237 56 32 28
95.5289 302.42 527.974 124 105 111
95.7955 301.598 526.538 119 100 106
98.1236 297.486 519.36 111 90 89
98.9784 296.935 518.398 115 91 87
99.4525 296.804 518.168 107 82 77
99.8632 296.485 517.612 106 81 74
101.605 298.561 521.237 101 74 67
101.952 298.054 520.351 100 73 66
102.298 297.548 519.467 101 74 67
104.036 296.581 517.779 93 66 57
104.393 296.125 516.983 95 66 58
105.48 294.828 514.72 92 64 53
107.401 293.052 511.619 80 47 42
120.623 326.022 569.179 81 52 54
121.753 324.485 566.496 78 58 70
122.776 324.196 565.991 75 58 74
120.094 307.206 536.329 113 102 106
120.51 306.899 535.793 116 104 106
120.968 306.701 535.448 116 101 104
121.332 306.269 534.693 113 97 97
121.719 305.9 534.048 114 99 94
122.137 305.61 533.542 123 106 99
122.555 305.321 533.038 129 111 101
122.971 305.032 532.534 130 110 99
117.321 286.065 499.42 88 62 49
117.712 285.801 498.96 75 48 37
118.115 285.569 498.555 88 61 50
118.517 285.338 498.151 89 62 53
119.053 285.429 498.309 78 54 44
119.452 285.192 497.897 76 51 44
119.952 285.196 497.903 77 54 48
120.119 284.414 496.538 84 60 56
120.514 284.175 496.12 82 61 60
120.908 283.936 495.703 85 63 65
121.419 283.972 495.766 91 70 75
121.798 283.7 495.291 91 71 80
122.176 283.428 494.818 92 76 87
122.553 283.158 494.345 88 74 87
157.737 290.621 507.375 67 43 43
157.826 289.853 506.034 68 44 44
163.142 293.964 513.211 63 36 29
164.975 295.409 515.734 58 34 32
178.508 309.956 541.13 80 43 34
173.787 299.038 522.07 83 51 36
174.162 298.787 521.631 81 52 36
197.292 318.446 555.953 54 31 25
197.274 317.523 554.341 54 29 24
189.467 302.408 527.953 58 31 22
189.4 301.462 526.302 57 30 21
206.173 321.025 560.454 54 30 28
209.133 322.133 562.388 103 99 98
228.303 310.73 542.482 144 151 161
228.117 309.742 540.757 144 151 161
254.252 308.658 538.864 129 134 137
254.098 307.818 537.398 129 134 137
0 327.849 571.371 41 44 37
3.99003 327.182 570.209 112 112 122
12.6988 316.917 552.319 36 33 52
14.8816 316.372 551.369 41 38 47
15.4283 316.28 551.209 40 38 41
15.9707 316.109 550.911 35 34 32
17.0876 316.395 551.41 30 29 25
17.6546 316.68 551.906 71 72 76
18.698 315.666 550.139 68 60 71
19.6331 304.578 530.815 33 38 42
32.3737 326.008 568.164 82 85 78
32.8703 325.302 566.933 96 98 95
53.581 304.51 530.696 109 113 124
57.687 301.021 524.616 118 116 127
66.7879 306.69 534.495 97 76 57
70.8371 315.198 549.322 88 58 56
71.0553 313.736 546.776 90 63 44
77.2524 314.489 548.087 59 33 32
77.6029 313.691 546.696 58 34 30
95.5609 303.05 528.151 125 104 111
95.8299 302.233 526.727 122 101 108
96.5158 302.733 527.599 118 97 104
100.182 296.414 516.586 109 84 79
106.949 293.725 511.9 92 62 60
120.592 326.508 569.034 82 52 50
121.144 326.464 568.957 80 50 50
121.508 325.913 567.997 82 53 55
109.472 292.266 509.357 77 51 54
111.968 290.812 506.824 76 64 76
120.209 306.667 534.455 100 92 105
121.111 306.244 533.719 117 106 112
121.485 305.844 533.021 116 104 106
121.912 305.577 532.556 116 102 99
122.322 305.273 532.026 115 100 93
122.731 304.969 531.496 117 99 89
123.353 305.193 531.887 121 102 88
118.044 285.896 498.256 108 85 69
118.539 285.888 498.242 84 61 47
118.938 285.649 497.826 86 59 48
119.839 285.425 497.435 81 50 48
120.216 285.14 496.938 80 50 50
120.592 284.855 496.442 79 51 50
120.967 284.571 495.947 79 53 54
121.342 284.288 495.453 80 56 56
121.483 283.46 494.01 80 58 61
122.051 283.633 494.313 89 70 74
122.441 283.392 493.892 90 73 79
122.89 283.289 493.713 96 81 88
123.375 283.268 493.677 95 82 91
124.352 283.246 493.637 90 79 93
145.732 288.45 502.706 114 102 102
157.223 291.116 507.353 65 44 43
157.282 290.288 505.911 69 45 45
164.123 295.318 514.676 52 27 22
169.232 297.062 517.715 71 44 35
177.542 310.698 541.481 73 43 33
177.605 309.865 540.029 78 44 34
189.979 303.755 529.381 59 32 23
190.271 303.376 528.72 60 33 22
228.189 311.117 542.211 143 150 160
228.015 310.143 540.514 144 151 161
254.085 308.994 538.51 128 133 137
253.926 308.147 537.034 128 133 137
0 328.405 571.344 39 44 37
0.570364 327.959 570.57 15 20 14
4.55468 327.367 569.539 49 46 53
12.7157 317.893 553.057 33 29 44
13.2594 317.673 552.674 23 19 33
15.4492 317.26 551.955 42 40 41
32.3705 326.545 568.109 82 85 78
36.484 327.786 570.268 100 100 102
37.6233 327.779 570.255 47 39 37
48.0349 287.709 500.544 119 124 130
49.0364 279.168 485.684 127 131 142
57.6027 318.476 554.071 123 135 131
58.0792 318.053 553.335 126 139 132
58.0396 300.656 523.068 119 119 129
59.1789 303.82 528.573 133 135 147
61.7391 295.833 514.678 97 104 110
70.2946 315.776 549.374 79 48 46
77.0406 314.173 546.584 55 29 28
77.3464 313.198 544.889 57 32 28
88.7357 311.116 541.266 141 129 117
95.593 303.68 528.328 121 98 106
95.8619 302.861 526.904 121 98 106
96.4194 302.957 527.072 120 97 105
108.608 293.191 510.082 82 51 48
108.935 292.7 509.226 88 57 54
122.061 326.443 567.931 81 52 48
113.078 290.268 504.995 73 65 80
120.837 306.085 532.513 100 90 99
121.252 305.79 532.001 112 102 110
115.578 288.946 502.696 121 110 108
122.496 304.913 530.474 120 105 100
122.904 304.61 529.948 118 101 94
123.368 304.45 529.669 120 102 92
123.794 304.196 529.226 124 106 94
124.58 303.532 528.073 126 107 92
118.904 286.067 497.687 127 103 91
119.145 285.451 496.615 102 71 66
119.689 285.564 496.812 87 53 51
120.103 285.368 496.471 82 51 48
120.46 285.038 495.897 87 56 53
120.863 284.82 495.518 85 56 52
121.24 284.542 495.034 77 49 45
121.615 284.262 494.546 71 46 42
121.97 283.938 493.982 82 58 56
122.22 283.373 493 80 59 58
122.653 283.235 492.761 84 66 66
123.044 283.002 492.354 89 70 74
123.457 282.821 492.039 88 73 78
147.328 286.195 497.91 68 63 60
156.95 292.058 508.11 67 46 41
157.347 291.853 507.754 65 41 37
177.593 304.824 530.32 74 46 32
177.638 303.994 528.875 74 42 29
190.075 303.592 528.176 60 33 24
190.385 303.245 527.572 59 32 23
209.768 323.369 562.584 127 127 125
227.486 310.699 540.541 144 151 161
255.965 312.484 543.646 127 132 136
255.813 311.637 542.173 129 134 138
0.570275 328.479 570.481 19 26 18
13.2898 318.955 553.94 16 14 19
26.752 321.024 557.533 79 83 82
32.3674 327.081 568.054 80 80 78
46.555 279.33 485.123 137 142 145
48.0772 279.722 485.803 136 139 146
53.217 306.53 532.362 124 128 137
57.7208 302.247 524.923 125 126 131
58.0978 301.48 523.592 119 122 129
57.7242 289.123 502.13 126 131 135
69.4249 317.371 551.19 105 73 58
77.6323 317.136 550.782 52 27 23
78.0003 316.396 549.495 54 26 22
77.5416 312.335 542.444 55 30 23
77.9007 311.603 541.172 52 32 23
83.4365 281.049 488.109 104 81 65
95.7499 304.707 529.195 121 91 99
96.0343 303.933 527.851 122 95 102
103.709 295.723 513.594 102 77 72
104.102 295.383 513.002 101 76 69
104.497 295.052 512.427 100 76 66
104.89 294.716 511.844 99 72 63
106.139 295.344 512.934 98 71 64
106.346 294.497 511.463 99 69 67
109.395 293.077 508.997 84 57 50
109.632 292.351 507.737 84 56 52
112.946 290.434 504.407 78 65 74
113.735 289.874 503.436 72 62 71
120.985 305.646 530.827 95 85 96
121.436 305.445 530.478 106 96 105
121.851 305.158 529.979 115 103 113
122.266 304.871 529.481 119 108 116
122.686 304.6 529.01 114 101 108
123.448 303.872 527.746 115 101 100
123.863 303.597 527.267 117 104 98
124.248 303.248 526.662 119 104 97
118.6 285.832 496.414 130 112 98
120.744 285.034 495.029 83 53 43
121.088 284.679 494.413 90 60 50
121.498 284.484 494.074 83 53 45
121.872 284.203 493.586 79 50 42
122.244 283.922 493.098 76 48 44
122.616 283.642 492.612 78 53 49
122.976 283.336 492.08 87 61 62
123.32 282.997 491.491 85 63 65
123.845 283.073 491.624 80 57 63
124.089 282.511 490.646 86 66 75
124.493 282.314 490.305 97 77 88
125.173 282.743 491.049 94 78 89
156.249 293.158 509.138 68 44 40
156.469 292.618 508.2 67 44 38
176.101 305.524 530.615 73 41 28
176.21 304.795 529.349 72 43 29
176.92 305.108 529.892 73 43 32
176.967 304.277 528.449 75 45 34
190.36 303.732 527.502 57 32 25
209.719 323.855 562.451 95 94 92
226.957 311.255 540.568 147 151 160
226.787 310.284 538.881 147 151 160
256.12 313.884 545.133 129 134 140
255.968 313.031 543.652 131 136 142
11.6529 320.176 555.098 31 26 33
12.7539 319.957 554.717 34 29 33
13.5767 326.406 565.898 43 41 44
23.2764 327.572 567.921 105 109 110
25.1198 322.092 558.419 57 66 61
25.9653 318.766 552.653 79 81 76
26.4119 298.817 518.066 74 80 78
33.94 287.991 499.297 50 45 39
57.7211 302.773 524.926 117 120 125
58.1204 302.122 523.796 121 124 129
57.9835 296.075 513.313 109 114 120
63.7781 294.4 510.409 101 70 52
82.2216 302.178 523.893 154 165 167
95.6572 304.94 528.683 119 89 91
95.9621 304.232 527.454 121 92 96
104.307 295.024 511.491 104 79 74
110.208 293.042 508.054 87 60 53
110.437 292.303 506.774 83 58 53
113.667 290.204 503.133 78 66 70
114.064 289.934 502.667 77 64 71
114.428 289.582 502.057 75 62 72
114.856 289.397 501.736 76 64 76
122.437 304.509 527.935 109 97 109
123.687 303.69 526.515 114 104 105
124.077 303.358 525.939 114 102 102
120.228 285.479 494.943 134 107 96
120.662 285.337 494.695 117 89 77
121.222 285.491 494.964 98 70 58
122.107 284.097 492.546 87 57 49
122.503 283.874 492.159 79 50 46
122.874 283.594 491.674 78 48 46
123.238 283.299 491.163 79 51 50
123.741 283.328 491.212 80 54 57
123.95 282.685 490.099 88 63 67
125.42 283.794 492.021 84 63 70
126.1 284.218 492.756 90 70 81
126.226 283.394 491.328 91 73 85
126.804 283.589 491.665 91 75 88
135.74 294.443 510.483 107 100 116
135.963 293.823 509.408 117 109 122
155.746 293.677 509.156 71 46 42
155.922 293.053 508.073 69 44 39
175.151 306.248 530.951 73 41 28
175.23 305.461 529.587 73 41 28
190.547 303.717 526.562 58 35 29
223.941 307.652 533.385 146 150 159
223.896 306.859 532.01 146 150 159
248.682 305.296 529.3 131 136 142
248.495 304.42 527.781 129 134 140
12.5348 329.322 569.967 43 38 44
12.7747 321.033 555.621 36 31 35
13.3136 320.636 554.933 49 44 48
14.1463 327.062 566.054 43 41 44
35.3818 324.614 561.819 109 99 98
34.4465 297.165 514.312 65 60 54
50.1337 305.024 527.913 132 137 140
56.6747 300.532 520.138 136 140 141
57.7193 303.288 524.909 116 120 123
58.1627 302.865 524.177 121 125 128
81.8611 303.306 524.94 152 166 167
82.1618 302.481 523.512 154 165 167
95.8746 304.481 526.973 124 96 93
96.173 303.759 525.725 119 91 90
108.186 293.575 508.098 92 64 60
111.192 292.131 505.598 82 54 50
111.428 291.427 504.38 80 55 51
113.957 290.163 502.193 82 66 66
114.353 289.894 501.728 81 65 68
114.748 289.626 501.264 79 64 71
115.143 289.358 500.8 81 65 75
115.534 289.084 500.325 82 69 79
123.045 303.931 526.021 105 92 102
123.505 303.771 525.744 113 100 109
123.89 303.424 525.145 117 104 113
125.117 302.585 523.692 119 105 105
119.83 286.206 495.345 122 103 96
120.284 286.109 495.176 124 104 97
120.551 285.568 494.24 141 118 110
121.019 285.505 494.131 135 112 104
128.051 300.868 520.72 130 106 96
122.685 284.787 492.888 88 59 53
124.053 283.409 490.504 78 50 49
124.379 283.037 489.859 86 58 57
125.232 283.859 491.283 88 62 63
125.817 284.071 491.649 81 59 62
126.228 283.89 491.336 86 65 70
126.75 283.958 491.454 89 70 76
127.168 283.797 491.174 88 71 79
136.278 296.124 512.509 105 97 112
136.546 295.594 511.592 110 102 117
155.268 294.246 509.26 68 43 39
155.446 293.62 508.177 67 43 39
155.623 292.997 507.099 68 45 39
160.573 294.638 509.938 52 27 20
174.167 306.917 531.189 74 42 29
174.249 306.128 529.824 73 41 28
190.398 304.006 526.152 58 35 29
190.708 303.662 525.557 58 35 27
224.485 320.376 554.484 146 151 157
224.419 319.493 552.955 147 152 158
10.7334 327.086 565.119 37 34 45
11.2869 326.754 564.546 44 38 48
11.688 322.256 556.774 35 30 37
12.3911 326.111 563.434 39 34 40
12.9424 325.81 562.914 48 43 47
13.317 321.273 555.076 40 35 39
16.4788 329.007 568.438 46 46 48
18.1612 328.605 567.743 57 53 52
24.0968 296.852 512.882 78 76 81
29.7645 325.163 561.796 66 68 67
34.4833 297.998 514.862 80 75 72
35.9659 301.801 521.433 40 41 45
48.4208 304.735 526.502 143 148 152
51.8761 303.397 524.19 98 101 106
49.0232 281.034 485.553 127 131 140
81.4974 304.432 525.979 150 165 168
81.8012 303.608 524.555 151 165 166
93.1563 304.732 526.496 116 95 76
107.355 294.59 508.975 95 69 68
108.762 292.899 506.052 99 71 67
111.998 292.103 504.678 88 60 56
112.211 291.346 503.369 85 57 53
113.566 290.95 502.685 79 56 50
113.85 290.392 501.72 81 60 55
115.451 289.377 499.967 78 61 69
115.857 289.144 499.565 71 55 65
116.213 288.787 498.948 81 65 76
116.726 288.822 499.008 91 75 88
117.11 288.54 498.521 97 83 96
124.101 303.183 523.82 115 101 114
119.802 286.633 495.227 116 102 101
120.58 286.131 494.359 120 105 100
120.968 285.879 493.923 125 108 101
127.741 300.659 519.459 129 110 104
128.153 300.407 519.025 131 111 104
122.064 284.98 492.371 142 119 113
128.989 299.938 518.213 124 99 92
124.442 283.67 490.107 79 50 44
124.87 283.527 489.861 79 50 44
125.628 284.135 490.911 86 61 56
126.282 284.503 491.546 89 65 61
126.868 284.716 491.914 89 68 65
127.275 284.525 491.585 89 68 67
127.807 284.616 491.742 89 69 70
128.332 284.691 491.871 91 72 76
136.549 298.346 515.463 95 83 95
136.759 297.683 514.317 100 88 102
153.507 292.369 505.138 62 43 37
153.649 291.681 503.949 62 41 36
160.378 294.791 509.321 47 27 20
173.183 307.586 531.428 74 44 34
174.774 309.462 534.668 71 41 30
179.569 303.121 523.714 101 91 82
191.068 305.603 528.002 58 35 29
190.948 304.569 526.216 58 35 27
225.388 323.019 558.093 146 151 157
224.155 320.459 553.669 145 150 156
256.276 316.384 546.628 130 134 143
256.123 315.522 545.14 132 137 143
10.1752 327.868 565.494 41 37 51
10.7311 327.582 565 41 38 49
11.2829 327.205 564.35 31 25 35
11.8379 326.951 563.912 37 32 39
12.5327 330.408 569.874 41 36 42
16.4799 329.598 568.477 54 52 55
17.5916 329.134 567.676 51 49 50
24.0285 296.522 511.428 76 73 82
28.9769 329.542 568.38 46 47 49
35.3649 325.582 561.55 107 96 100
37.8285 288.691 497.922 142 152 161
51.8183 319.73 551.457 128 132 133
50.4463 304.78 525.672 99 103 104
51.468 304.607 525.373 101 104 109
55.1252 322.956 557.021 123 126 131
58.6222 317.765 548.069 139 145 143
57.0788 303.722 523.847 133 137 138
59.488 297.44 513.012 131 132 136
81.7413 303.91 524.171 150 164 165
82.0441 303.093 522.762 152 163 165
94.3484 304.011 524.346 94 76 56
96.5915 306.137 528.013 113 89 77
96.8424 303.614 523.661 110 85 81
107.69 294.622 508.153 94 69 72
107.894 293.797 506.728 96 72 72
108.59 292.942 505.254 95 70 66
112.984 291.248 502.332 87 58 50
113.213 290.546 501.121 84 55 47
113.804 290.776 501.518 81 53 49
114.247 290.628 501.264 79 54 50
115.358 289.642 499.563 87 66 71
115.715 289.287 498.95 80 61 67
116.104 289.015 498.481 81 64 74
116.612 289.039 498.523 80 62 74
117.036 288.855 498.205 78 62 75
117.439 288.622 497.803 82 66 79
117.849 288.407 497.432 93 76 92
118.254 288.182 497.044 103 86 102
119.751 287.006 495.015 118 109 112
120.917 286.252 493.716 116 104 104
121.306 286.007 493.293 115 101 100
121.734 285.853 493.027 122 107 104
122.137 285.642 492.664 127 108 104
124.087 284.468 490.638 103 73 62
125.093 283.414 488.821 79 53 40
127.206 284.863 491.32 86 62 52
127.803 285.099 491.727 85 62 56
128.689 284.885 491.358 88 67 66
152.69 293.245 505.777 58 42 42
152.823 292.533 504.549 57 42 39
153.429 292.726 504.882 58 40 36
173.948 310.43 535.417 72 44 33
174.082 309.716 534.186 74 44 34
203.148 326.388 562.94 58 33 26
224.918 322.902 556.928 146 151 157
223.764 320.452 552.702 145 150 156
223.249 318.928 550.073 146 151 157
233.053 290.689 501.369 106 110 119
256.277 316.932 546.631 131 136 142
256.124 316.068 545.142 131 136 142
0 331.884 571.434 37 52 57
1.71244 331.643 571.02 87 98 104
10.1713 328.308 565.277 46 43 54
15.0531 323.92 557.722 41 37 38
16.4199 328.965 566.409 25 20 24
16.9844 328.931 566.35 24 22 25
17.5861 329.598 567.498 52 50 51
18.1531 329.592 567.488 52 49 44
25.8271 326.207 561.66 72 69 80
30.0209 329.097 566.636 71 71 69
30.5409 328.598 565.776 93 94 89
31.1105 328.64 565.849 90 91 85
30.5393 295.722 509.172 57 51 51
49.3296 318.45 548.304 113 118 121
50.9153 308.144 530.559 82 86 87
51.0423 305.727 526.398 100 104 105
58.6261 288.659 497.01 133 137 140
70.3189 319.182 549.564 77 50 41
81.3487 304.927 525.019 150 164 167
81.6494 304.092 523.582 152 163 165
108.86 292.814 504.164 93 69 67
113.647 290.878 500.83 86 55 52
114.052 290.631 500.406 81 51 49
114.476 290.439 500.074 82 54 53
114.9 290.247 499.744 83 59 59
115.17 289.67 498.752 85 63 65
115.589 289.471 498.408 82 62 64
116 289.254 498.034 82 63 67
116.447 289.128 497.818 80 61 67
116.846 288.882 497.394 78 58 67
117.338 288.871 497.375 76 59 69
117.761 288.687 497.059 80 62 74
118.078 288.248 496.303 85 67 79
119.011 288.107 496.059 94 84 92
121.606 286.045 492.509 112 100 100
122.049 285.93 492.311 123 109 108
128.746 285.503 491.575 86 61 56
129.936 284.878 490.501 93 73 75
152.003 293.401 505.174 58 40 40
152.087 292.592 503.782 58 42 43
173.329 309.86 533.513 71 43 32
173.447 309.118 532.237 73 43 33
197.402 324.902 559.413 110 101 96
202.851 327.379 563.677 57 32 25
203.137 326.933 562.91 57 32 25
203.692 326.92 562.888 58 33 26
223.123 320.085 551.119 147 152 158
256.432 318.349 548.13 132 137 143
256.279 317.479 546.633 132 137 143
0 332.457 571.438 51 68 75
0.571022 332.335 571.228 60 77 84
10.1693 328.808 565.166 36 35 41
12.5182 331.164 569.216 40 36 37
14.7154 329.398 566.179 35 29 29
15.2852 329.481 566.322 18 12 12
15.8502 329.457 566.281 28 24 23
16.4141 329.414 566.207 20 16 17
16.9793 329.398 566.18 14 10 11
17.5837 330.12 567.421 59 55 54
33.6677 332.112 570.844 78 74 71
50.1927 317.524 545.77 119 120 122
51.1063 309.832 532.549 104 108 109
55.0466 308.049 529.485 148 153 156
55.425 307.213 528.047 147 153 153
81.294 305.246 524.666 150 164 167
112.523 293.669 504.768 97 67 65
114.111 291.282 500.665 87 57 59
114.305 290.504 499.327 87 59 58
114.717 290.283 498.948 82 56 55
115.204 290.255 498.899 78 54 52
115.6 289.997 498.456 80 56 54
115.931 289.579 497.738 80 59 58
116.362 289.413 497.452 84 63 62
116.773 289.2 497.087 87 67 68
117.184 288.989 496.723 87 67 68
117.595 288.777 496.359 84 64 66
118.005 288.566 495.997 83 63 65
118.414 288.355 495.634 81 65 68
118.862 288.24 495.436 69 58 64
119.267 288.022 495.062 80 73 80
119.68 287.824 494.721 89 82 89
120.07 287.575 494.293 95 88 95
120.8 286.961 493.237 115 108 115
121.592 286.503 492.451 126 117 120
122.197 286.768 492.906 109 99 100
122.609 286.58 492.583 116 104 104
141.418 299.292 514.433 91 87 104
151.333 293.585 504.623 57 39 39
151.381 292.703 503.107 60 42 42
151.622 292.199 502.242 56 40 40
172.644 310.119 533.043 70 41 33
172.715 309.293 531.623 70 40 30
202.783 327.832 563.488 57 33 23
203.069 327.386 562.721 57 33 23
222.487 319.723 549.549 147 152 158
256.594 319.781 549.649 130 135 139
256.434 318.898 548.132 131 136 140
0 333.031 571.442 73 91 101
0.571026 332.908 571.231 76 93 103
10.1666 329.284 565.013 44 43 48
10.7274 329.161 564.802 35 35 37
11.2816 328.858 564.282 39 37 40
14.1495 329.965 566.182 28 23 20
14.7118 329.883 566.041 20 15 12
16.4099 329.896 566.064 25 21 20
16.9853 330.082 566.382 29 25 26
27.9916 326.383 560.034 100 97 104
31.375 326.636 560.469 56 53 46
48.3813 324.211 556.307 104 111 117
50.4858 323.442 554.989 120 124 125
70.103 319.297 547.877 85 58 47
81.2394 305.565 524.314 151 165 168
81.54 304.729 522.88 153 164 166
101.397 298.556 512.288 126 105 114
110.785 292.251 501.468 98 74 74
112.923 293.901 504.3 99 66 73
114.185 293.259 503.199 93 61 66
115.113 290.523 498.503 87 62 58
115.508 290.265 498.061 85 62 56
115.869 289.921 497.471 84 61 55
116.238 289.601 496.921 87 64 58
117.522 289.095 496.053 87 63 59
117.92 288.853 495.639 87 63 59
118.341 288.673 495.329 87 67 66
118.78 288.537 495.096 76 60 63
119.202 288.361 494.794 76 63 70
119.593 288.111 494.365 78 67 75
120.003 287.908 494.016 75 64 72
120.372 287.611 493.507 94 84 92
120.803 287.461 493.249 105 95 103
121.579 286.965 492.398 108 101 108
121.964 286.715 491.969 109 103 107
122.362 286.494 491.589 120 111 114
122.749 286.252 491.174 118 108 109
123.393 286.605 491.781 112 101 99
148.011 288.596 495.198 52 34 30
150.701 292.861 502.516 60 42 40
150.937 292.346 501.632 64 46 44
151.174 291.836 500.756 54 39 36
171.959 310.378 532.573 71 42 34
172.033 309.552 531.156 71 41 31
202.709 328.275 563.282 56 32 22
203.142 328.065 562.922 56 32 22
203.478 327.7 562.296 59 32 23
222.156 320.586 550.088 147 152 158
221.907 319.436 548.116 146 151 157
256.594 320.33 549.649 128 133 137
256.438 319.451 548.141 129 134 138
11.9569 332.516 569.581 41 40 36
14.1338 330.166 565.557 23 20 15
16.4054 330.37 565.906 21 17 14
18.129 330.855 566.737 76 72 69
20.3283 329.77 564.878 63 69 67
21.4269 312.833 535.865 93 94 96
34.5521 325.458 557.492 63 56 63
41.8148 325.598 557.731 41 39 52
48.3256 324.393 555.667 105 110 114
48.8519 324.199 555.335 105 109 112
48.4191 317.716 544.231 121 125 126
59.6744 322.684 552.74 143 147 146
68.0879 320.672 549.293 97 66 46
68.5611 320.318 548.686 98 65 48
69.3182 321.284 550.343 77 48 40
81.1687 305.823 523.857 152 163 167
110.086 294.91 505.165 98 81 87
110.519 294.718 504.836 96 80 83
113.271 294.001 503.607 94 64 74
114.642 293.643 502.995 93 67 70
114.864 292.928 501.769 95 69 68
115.795 290.232 497.152 86 62 52
116.218 290.048 496.836 87 63 51
116.63 289.837 496.476 88 64 52
116.859 289.176 495.342 89 62 51
117.436 289.379 495.691 86 59 50
117.844 289.163 495.321 87 60 51
118.268 288.99 495.024 89 64 59
118.676 288.779 494.663 89 68 67
119.117 288.647 494.437 83 62 67
119.507 288.397 494.009 82 63 69
119.914 288.187 493.649 82 65 71
120.311 287.958 493.256 81 66 73
120.708 287.729 492.864 77 66 74
121.05 287.37 492.249 83 73 81
121.436 287.12 491.822 92 85 93
121.818 286.861 491.377 99 92 100
122.204 286.614 490.954 108 101 109
122.653 286.517 490.787 115 108 115
123.039 286.275 490.374 118 109 114
123.43 286.045 489.979 117 108 111
130.499 301.232 515.993 113 103 104
150.164 292.319 500.726 53 38 33
150.42 291.845 499.914 56 41 36
171.569 307.351 526.475 72 42 32
171.629 306.517 525.047 68 38 28
176.622 303.375 519.664 113 104 95
202.681 328.794 563.206 56 32 22
203.088 328.542 562.774 56 32 22
203.483 328.271 562.31 58 31 22
221.387 320.024 548.184 147 152 158
221.306 319.117 546.63 146 151 157
246.668 329.644 564.662 141 148 154
247.056 329.408 564.258 141 148 154
256.594 320.88 549.65 131 136 139
256.438 319.999 548.142 132 137 141
13.5578 330.47 565.11 21 18 11
14.1186 330.376 564.948 23 20 13
15.266 330.763 565.611 44 41 36
15.8484 331.118 566.218 18 14 11
16.5075 332.997 569.43 43 39 36
17.1471 313.471 536.041 78 74 75
23.7325 330.559 565.262 70 79 76
25.8815 302.814 517.817 97 92 98
28.1789 317.013 542.097 71 67 66
28.6816 316.58 541.356 70 67 62
49.6167 305.534 522.469 133 135 134
50.2114 305.976 523.224 135 139 140
59.8532 318.31 544.316 131 135 138
68.4982 320.572 548.183 94 61 44
69.273 321.625 549.984 80 51 43
70.321 321.389 549.58 82 54 42
80.7876 306.888 524.784 152 163 167
81.0847 306.029 523.315 152 163 167
117.769 289.474 495.005 87 59 48
118.183 289.276 494.667 89 60 52
118.59 289.063 494.303 87 59 58
118.995 288.848 493.934 88 62 65
119.398 288.628 493.558 86 61 65
119.767 288.328 493.046 80 59 64
120.167 288.106 492.666 78 59 65
120.614 287.996 492.478 78 63 70
121.019 287.79 492.126 79 66 75
121.415 287.563 491.737 78 68 77
121.811 287.336 491.349 79 72 80
122.528 286.715 490.288 93 88 95
122.951 286.559 490.021 101 96 103
123.334 286.311 489.597 110 105 111
123.72 286.072 489.188 113 106 113
131.596 300.717 514.231 111 101 100
131.495 297.007 507.887 124 109 104
148.036 288.671 493.632 53 38 31
170.823 308.431 527.422 69 39 29
170.899 307.618 526.032 70 40 30
181.529 308.706 527.892 147 153 153
181.81 308.287 527.176 146 151 154
181.86 307.48 525.796 145 149 152
202.632 329.276 563.068 56 32 22
203.067 329.07 562.716 56 32 22
203.041 328.119 561.089 59 32 23
211.648 329.292 563.096 114 112 113
220.97 319.968 547.151 147 152 158
220.912 319.095 545.657 146 151 157
246.644 330.175 564.605 139 146 152
256.594 321.429 549.65 131 136 139
256.438 320.548 548.142 131 136 140
0 334.743 571.44 51 64 81
0.57102 334.618 571.225 82 95 112
3.42068 334.086 570.319 72 78 92
11.2364 329.226 562.021 74 73 69
11.9416 333.227 568.851 71 70 65
14.1032 330.58 564.332 33 30 23
14.6613 330.444 564.101 17 16 11
15.219 330.309 563.87 19 18 13
15.9183 333.146 568.714 39 38 34
16.1215 314.906 537.576 52 51 49
19.567 327.607 559.258 62 67 70
21.4491 330.768 564.653 70 70 72
27.9172 327.189 558.544 77 72 78
37.0993 306.2 522.713 31 15 26
43.546 315.037 537.799 68 78 88
44.4798 314.038 536.094 125 134 143
49.2349 306.933 523.964 125 129 128
57.6367 315.655 538.855 129 135 133
60.8505 321.247 548.4 142 146 149
68.6858 321.999 549.685 92 56 40
69.2279 321.965 549.626 79 52 45
70.2752 321.729 549.222 82 54 42
70.7479 321.382 548.631 74 47 30
81.0189 306.304 522.891 153 162 167
116.149 290.869 496.542 98 73 66
116.562 290.66 496.185 95 68 61
118.518 289.38 494.001 84 53 51
118.922 289.163 493.63 86 56 56
119.325 288.943 493.254 87 58 60
119.727 288.723 492.879 84 58 61
120.092 288.418 492.358 83 58 62
120.491 288.196 491.979 83 62 67
120.93 288.07 491.764 79 62 70
121.326 287.842 491.375 74 61 70
121.711 287.59 490.945 73 61 71
122.474 287.078 490.071 75 67 78
122.871 286.863 489.704 79 73 83
123.275 286.662 489.361 88 82 92
123.654 286.409 488.928 93 87 97
132.023 299.866 511.901 113 101 105
149.502 292.028 498.521 55 40 33
169.913 311.153 531.169 68 38 30
169.992 310.327 529.759 68 38 28
181.487 310.063 529.308 144 153 152
180.961 308.266 526.24 147 152 155
202.623 329.826 563.045 56 31 24
203.02 329.556 562.585 57 32 25
203.07 328.727 561.17 59 32 25
211.643 329.848 563.083 83 79 80
220.418 319.715 545.785 146 151 157
220.362 318.844 544.299 146 151 157
246.21 330.916 564.906 141 148 154
246.619 330.706 564.548 140 147 153
256.751 322.867 551.166 130 135 138
256.594 321.979 549.65 130 135 138
0 335.314 571.439 55 66 84
3.42067 334.656 570.317 71 75 87
3.98888 334.496 570.045 61 65 77
19.56 328.049 559.058 61 66 69
26.9355 304.061 518.178 82 76 76
29.5433 327.206 557.622 74 69 66
34.2917 314.519 536 90 94 106
35.2274 313.31 533.94 77 80 85
37.0807 306.569 522.452 30 14 24
46.3361 305.61 520.818 98 100 99
60.8157 321.611 548.086 146 149 154
68.1123 322.435 549.49 96 61 41
68.6589 322.422 549.469 91 55 39
70.7528 321.953 548.669 74 45 29
80.6398 307.374 523.824 153 162 167
80.9378 306.519 522.367 152 161 166
104.189 296.887 505.952 122 101 100
104.565 296.52 505.327 121 101 103
104.913 296.077 504.571 126 109 117
116.489 290.974 495.875 95 71 67
116.9 290.765 495.519 95 67 63
117.276 290.469 495.014 95 67 63
117.679 290.241 494.627 94 65 61
118.038 289.91 494.063 91 62 58
118.445 289.697 493.7 89 58 56
118.851 289.485 493.337 84 53 51
119.257 289.272 492.975 84 54 54
119.646 289.021 492.547 89 60 62
120.091 288.907 492.353 89 63 66
120.416 288.508 491.672 81 59 62
120.795 288.239 491.215 78 57 62
121.237 288.122 491.014 80 61 67
121.632 287.894 490.627 77 62 69
122.013 287.636 490.187 78 65 74
122.41 287.418 489.815 77 66 74
122.807 287.203 489.448 73 63 72
123.219 287.023 489.141 71 63 74
124.412 286.392 488.067 84 78 88
124.722 285.983 487.37 95 88 96
132.43 300.14 511.496 114 103 109
148.867 292.258 498.063 52 39 33
149.117 291.772 497.236 55 40 33
169.009 313.95 535.031 65 40 35
169.094 313.117 533.612 69 40 34
183.266 314.553 536.058 146 155 154
181.27 310.219 528.673 143 151 153
202.576 330.312 562.914 56 31 24
202.973 330.042 562.454 56 31 24
203.369 329.772 561.995 59 32 25
219.869 319.463 544.426 146 151 157
244.966 332.09 565.945 143 148 154
245.36 331.858 565.549 142 149 155
245.697 331.549 565.023 142 149 155
246.178 331.437 564.831 142 149 155
256.751 323.418 551.167 130 135 138
256.594 322.529 549.65 130 135 138
2.8512 335.301 570.446 86 89 104
3.42019 335.179 570.237 66 70 82
3.98876 335.056 570.028 83 85 98
17.4874 331.697 564.314 62 62 64
25.2455 309.257 526.137 45 39 41
30.6877 328.079 558.159 85 75 73
31.8661 334.594 569.242 64 54 53
32.4329 334.571 569.203 78 68 67
34.3548 310.779 528.725 72 75 84
35.1626 313.267 532.959 78 79 83
35.8857 305.809 520.27 47 39 36
45.8713 317.321 539.856 118 119 121
46.1226 304.72 518.418 93 93 91
57.6048 319.544 543.637 134 140 138
60.7738 321.937 547.709 152 155 160
68.1031 322.941 549.417 100 65 45
68.4798 322.129 548.035 89 53 37
69.0556 322.26 548.258 69 41 37
80.2468 308.399 524.678 151 162 168
80.5705 307.633 523.373 152 161 166
102.828 302.316 514.328 98 78 67
103.203 301.908 513.634 97 75 64
118.011 290.337 493.949 91 66 62
118.412 290.11 493.561 94 66 65
118.772 289.784 493.007 88 58 58
119.177 289.57 492.644 85 57 56
119.572 289.334 492.241 89 61 60
119.97 289.108 491.857 87 61 62
120.387 288.929 491.553 80 56 56
120.797 288.735 491.223 78 53 56
121.2 288.525 490.866 78 56 59
121.574 288.248 490.395 79 59 61
121.949 287.976 489.931 83 64 68
122.346 287.757 489.559 85 68 74
122.743 287.542 489.193 84 69 74
125.24 286.541 487.49 84 77 85
132.836 300.414 511.092 108 98 106
132.969 299.563 509.644 109 98 106
133.841 299.233 509.083 123 111 115
148.584 292.198 497.114 52 37 32
149.565 293.148 498.731 53 38 33
151.06 294.116 500.377 48 35 27
151.804 294.59 501.184 49 32 25
152.382 294.74 501.438 55 32 26
168.405 313.362 533.12 70 41 35
169.077 313.619 533.557 71 41 33
182.99 314.614 535.251 146 156 157
202.568 330.861 562.891 55 30 23
202.965 330.592 562.434 55 30 23
203.349 330.302 561.94 56 31 24
220.471 322.48 548.633 145 152 158
220.416 321.599 547.134 144 151 157
256.751 323.97 551.167 130 135 138
256.594 323.078 549.651 130 135 138
0 336.503 571.518 111 118 136
0.571049 336.348 571.255 65 72 90
2.85086 335.831 570.377 60 64 76
3.42009 335.739 570.22 65 67 80
3.98865 335.616 570.012 97 99 111
4.55572 335.415 569.67 66 66 76
15.7759 331.858 563.628 97 98 100
18.7246 334.205 567.616 44 42 47
21.9368 323.02 548.618 39 37 38
26.235 328.775 558.393 62 46 46
26.8038 328.905 558.614 52 46 48
26.0892 307.331 521.972 78 74 75
28.953 327.949 556.989 85 79 79
30.0467 327.732 556.621 72 62 61
32.4222 335.029 569.015 81 71 70
32.9857 334.975 568.923 66 56 57
33.5782 335.213 569.328 71 61 62
34.611 334.195 567.598 98 87 91
33.0003 313.503 532.455 115 104 110
44.8996 318.625 541.153 121 125 128
66.879 322.883 548.386 83 67 51
67.4126 322.813 548.267 89 62 41
67.9459 322.743 548.148 99 64 44
68.479 322.673 548.03 86 50 34
68.9394 322.264 547.335 66 38 34
70.1382 322.745 548.152 83 54 40
80.4656 307.755 522.692 151 160 165
80.7636 306.902 521.243 151 160 165
102.784 310.462 527.289 114 111 104
103.138 309.941 526.406 116 112 101
102.753 302.607 513.948 94 76 62
118.132 323.627 549.649 126 113 130
117.966 290.719 493.759 91 70 67
118.361 290.478 493.348 93 69 69
118.755 290.236 492.938 94 68 69
119.149 289.995 492.529 90 64 65
119.497 289.646 491.935 86 60 59
119.895 289.42 491.552 85 59 58
120.303 289.219 491.211 86 60 59
120.583 288.714 490.353 85 59 58
121.138 288.868 490.615 82 56 55
121.541 288.659 490.259 87 61 60
121.942 288.45 489.904 87 63 63
122.327 288.201 489.483 85 63 65
122.744 288.032 489.195 87 67 68
124.953 287.489 488.272 77 66 74
125.44 287.486 488.268 72 65 72
125.927 287.484 488.264 74 67 75
133.609 300.365 510.141 107 100 108
134.032 300.171 509.811 114 104 112
148.69 292.904 497.47 52 37 32
149.425 293.372 498.264 51 36 31
150.918 294.341 499.909 47 33 30
151.662 294.815 500.714 50 32 28
151.999 294.498 500.177 55 32 26
152.653 294.796 500.682 62 37 30
181.12 306.551 520.648 148 148 150
181.187 305.785 519.346 145 149 148
202.906 331.057 562.269 55 30 23
203.302 330.787 561.81 56 31 24
220.291 323.569 549.551 146 154 157
220.235 322.683 548.047 145 152 158
256.751 324.521 551.167 130 135 138
256.595 323.628 549.651 130 135 138
0.571082 336.938 571.288 95 101 117
1.14172 336.808 571.067 86 92 108
4.55537 335.958 569.626 64 64 74
17.6307 325.065 551.157 47 45 48
21.4624 324.688 550.517 53 48 52
24.3948 306.232 519.224 80 64 65
25.6609 308.978 523.88 79 77 78
33.5536 335.536 568.91 65 53 57
34.5908 334.567 567.266 94 82 86
35.1573 334.561 567.257 98 87 91
68.1267 326.786 554.075 90 63 42
68.4664 323.161 547.928 84 48 32
69.0536 323.346 548.242 70 42 38
70.0926 323.083 547.796 82 53 37
80.9686 312.232 529.397 151 162 168
81.2825 311.407 527.999 151 160 165
120.822 316.823 537.181 115 103 117
121.189 316.379 536.428 110 99 113
121.502 315.797 535.442 111 100 114
117.886 291.014 493.422 95 78 71
118.262 290.728 492.936 92 74 74
118.654 290.482 492.519 94 74 76
119.068 290.29 492.194 93 71 73
119.335 289.743 491.267 89 68 67
119.778 289.628 491.071 90 64 63
120.136 289.306 490.526 91 66 62
121.478 289.001 490.008 94 65 61
121.88 288.792 489.653 91 63 59
122.281 288.583 489.299 88 60 56
122.681 288.374 488.945 86 61 57
123.081 288.166 488.592 89 63 62
123.48 287.957 488.239 85 61 59
123.879 287.75 487.887 85 61 61
124.277 287.542 487.535 87 67 68
124.698 287.389 487.276 69 57 61
125.182 287.382 487.264 68 59 64
125.789 287.657 487.729 72 62 70
133.088 299.702 508.153 91 85 95
148.027 293.073 496.913 56 36 35
148.64 293.303 497.302 55 37 35
150.037 294.093 498.641 50 35 32
150.981 294.964 500.119 48 34 33
151.52 295.039 500.246 52 34 30
151.617 294.257 498.921 60 35 30
182.599 309.578 524.897 148 148 150
202.476 331.836 562.636 56 31 26
202.859 331.543 562.139 56 31 26
220.109 324.661 550.472 145 153 156
220.055 323.771 548.963 145 153 156
256.909 325.971 552.692 130 135 138
256.752 325.072 551.167 130 135 139
0.571045 337.487 571.25 53 59 75
1.1417 337.374 571.058 61 67 83
15.1274 331.122 560.476 67 68 72
15.6744 330.842 560.002 75 76 80
17.9652 331.795 561.616 66 61 65
20.1719 331.155 560.532 53 55 54
25.6531 309.408 523.722 76 74 75
28.2538 327.412 554.195 91 87 88
28.6638 325.775 551.425 77 71 71
30.0714 329.115 557.078 74 65 66
33.581 336.379 569.375 75 64 68
34.5775 335.005 567.048 99 87 91
33.9623 318.599 539.278 59 47 49
35.6149 305.049 516.343 39 39 27
35.3537 298.486 505.234 29 32 25
35.8018 298.012 504.432 37 43 41
40.5269 288.571 488.451 120 120 122
67.962 323.915 548.278 96 61 42
68.4805 323.776 548.041 82 50 35
70.0464 323.417 547.435 83 54 40
80.9416 312.657 529.221 152 161 168
81.3034 312.015 528.134 155 160 166
102.762 303.661 513.994 163 156 140
103.123 303.212 513.234 163 154 137
122.283 321.196 543.675 122 109 126
122.831 315.623 534.241 112 101 117
132.206 331.076 560.398 103 91 91
119.358 290.29 491.362 96 76 77
119.722 289.983 490.842 93 72 71
120.045 289.577 490.155 87 63 61
120.463 289.406 489.864 85 60 56
121.416 289.343 489.758 89 61 57
121.818 289.133 489.403 91 64 57
122.619 288.715 488.696 92 64 60
123.018 288.507 488.343 91 63 59
123.417 288.299 487.99 85 57 53
123.816 288.091 487.638 85 60 56
124.368 288.241 487.893 93 69 67
124.81 288.135 487.713 88 72 73
125.822 288.22 487.857 75 63 67
126.149 287.854 487.237 78 65 72
125.82 285.999 484.097 78 67 73
147.698 292.917 495.809 58 38 37
148.309 293.146 496.196 57 37 36
150.148 293.832 497.357 50 32 32
151.36 295.227 499.717 52 32 31
151.36 294.255 498.073 62 38 34
151.948 294.431 498.37 55 32 26
182.328 310.536 525.63 147 146 151
182.326 309.64 524.114 148 149 151
202.43 332.323 562.508 56 33 27
202.828 332.053 562.052 56 31 24
203.225 331.784 561.596 56 31 24
219.881 324.064 548.528 144 151 157
219.816 323.162 547.002 145 152 158
256.916 326.532 552.707 130 135 138
256.759 325.632 551.182 130 135 139
0 338.176 571.448 67 74 92
0.571021 338.044 571.226 66 73 89
1.1416 337.913 571.004 70 77 93
1.71173 337.782 570.782 75 81 95
22.5297 333.439 563.444 75 76 70
24.0462 309.465 522.933 84 79 76
36.3413 336.157 568.038 76 68 65
35.2326 306.731 518.313 38 38 30
67.6538 328.287 554.739 96 64 51
68.0649 327.597 553.573 103 67 51
67.9072 324.202 547.836 86 53 38
68.4363 324.114 547.687 68 40 28
80.952 313.226 529.288 154 158 167
81.2717 312.421 527.928 158 158 166
124.32 310.539 524.747 108 96 100
124.634 310.015 523.862 107 92 95
121.354 289.684 489.508 88 67 64
122.955 288.848 488.094 91 66 62
123.354 288.639 487.742 89 64 60
123.731 288.381 487.306 89 61 57
124.214 288.372 487.29 89 64 60
125.694 288.413 487.36 83 63 64
147.37 292.762 494.709 58 40 36
149.376 293.79 496.445 50 26 24
149.827 293.7 496.293 58 32 33
150.514 294.073 496.923 60 36 34
151.007 294.067 496.914 50 31 27
152.482 295.966 500.122 41 26 21
181.937 311.29 526.017 147 148 153
182.056 310.596 524.845 146 147 152
202.361 332.772 562.317 58 35 27
202.782 332.54 561.925 55 31 21
219.402 324.715 548.703 145 150 156
219.332 323.801 547.158 146 150 159
256.921 327.091 552.718 132 135 140
256.764 326.189 551.194 133 136 141
0 338.732 571.423 86 95 110
0.570995 338.6 571.201 77 86 101
23.2563 336.365 567.431 99 102 93
24.3898 321.403 542.19 68 67 62
31.8963 326.112 550.134 78 78 76
32.4055 320.274 540.285 70 61 64
35.1778 306.771 517.506 38 38 36
35.5336 305.383 515.166 35 37 36
45.4814 296.379 499.976 122 124 119
67.6111 328.634 554.389 95 59 45
68.0498 328.077 553.449 104 65 50
67.8906 324.671 547.702 85 56 42
68.4196 324.583 547.554 74 47 36
69.9797 324.203 546.913 83 50 43
77.6787 324.39 547.23 55 30 25
106.981 299.244 504.809 105 87 77
107.317 298.774 504.016 100 80 71
107.637 298.266 503.159 106 81 74
124.832 313.667 529.14 112 104 115
121.236 289.891 489.032 91 71 72
122.893 289.188 487.845 92 66 65
123.292 288.98 487.494 89 64 60
123.632 288.638 486.917 89 61 58
146.944 293.393 494.939 59 41 37
146.8 292.121 492.793 59 40 34
149.548 293.648 495.369 64 36 35
150.366 294.281 496.437 58 34 32
151.875 296.255 499.768 44 26 24
181.634 311.297 525.142 146 149 154
181.633 310.399 523.626 146 149 154
219.197 325.773 549.563 142 150 153
219.126 324.855 548.013 146 150 159
257.063 328.531 554.214 133 134 139
256.904 327.622 552.681 134 135 140
21.8456 316.494 533.011 81 82 76
24.3984 315.057 530.591 90 86 83
24.1283 304.941 513.553 100 99 97
25.3813 301.53 507.808 100 95 101
35.102 306.626 516.391 85 85 87
35.4319 305.022 513.69 86 87 89
67.8746 325.141 547.573 81 53 39
68.4045 325.058 547.433 75 52 38
68.9442 325.023 547.373 81 54 47
69.4463 324.812 547.018 76 47 43
69.9666 324.689 546.811 76 46 38
76.8796 326.189 549.338 57 33 29
77.1927 325.195 547.663 55 32 26
122.377 289.609 487.733 96 75 72
122.812 289.485 487.524 98 74 72
122.972 288.716 486.228 94 70 66
123.412 288.61 486.051 91 66 62
135.744 301.993 508.588 84 69 76
135.142 299.531 504.443 81 68 77
135.459 299.118 503.747 81 71 80
137.59 301.582 507.896 90 84 96
137.956 301.271 507.373 93 86 102
138.355 301.037 506.979 98 91 107
147.534 294.077 495.257 54 31 25
149.249 293.557 494.381 61 37 33
150.217 294.484 495.943 52 31 28
181.332 311.304 524.269 147 151 154
218.99 326.835 550.425 143 151 154
218.921 325.912 548.871 143 151 154
218.851 324.994 547.325 145 149 158
257.062 329.084 554.212 133 134 139
256.904 328.174 552.68 133 134 139
24.7546 306.854 515.907 92 87 93
30.4299 329.196 553.469 83 81 84
67.8703 325.668 547.538 74 48 33
68.3917 325.544 547.33 75 53 39
68.9127 325.421 547.123 77 48 40
69.4333 325.298 546.916 77 46 41
76.4901 327.422 550.487 56 33 27
76.8084 326.436 548.829 56 33 27
127.714 308.903 519.351 104 89 96
127.936 308.186 518.146 103 86 92
123.869 289.028 485.935 90 66 64
124.282 288.858 485.65 85 64 61
124.741 288.797 485.548 87 66 63
134.996 299.712 503.899 80 65 72
135.395 299.48 503.509 77 66 72
135.793 299.248 503.12 77 67 75
136.191 299.017 502.731 75 65 76
147.849 296.196 497.988 69 40 32
147.091 292.706 492.119 66 41 34
149.325 294.199 494.63 49 30 24
150.843 296.209 498.01 43 25 21
181.241 312.575 525.526 146 149 154
181.242 311.674 524.01 146 150 153
256.745 327.819 551.154 131 134 139
256.589 326.917 549.639 130 133 138
0 340.379 571.311 49 54 58
0.570777 340.183 570.982 61 66 70
28.7771 329.83 553.606 81 71 80
30.4277 329.726 553.43 71 69 74
30.9415 329.306 552.726 83 84 88
31.4957 312.857 525.117 104 108 111
31.559 298.558 501.117 135 134 140
67.8813 326.268 547.627 69 46 30
68.3643 325.961 547.111 78 56 42
76.1175 328.739 551.775 54 30 26
76.4401 327.757 550.127 54 31 25
121.568 324.908 545.343 123 102 109
127.952 311.262 522.439 109 97 109
123.916 289.623 486.12 93 71 73
124.31 289.41 485.762 85 65 66
124.76 289.327 485.622 87 67 66
125.175 289.164 485.35 89 68 67
136.56 299.228 502.241 76 65 81
136.838 298.737 501.417 75 66 83
137.233 298.507 501.031 78 69 86
137.628 298.277 500.646 81 72 89
149.725 295.484 495.957 40 27 19
180.968 309.933 520.21 146 150 153
180.887 308.908 518.488 146 150 153
218.441 323.858 543.581 146 151 157
218.386 322.973 542.096 145 150 156
253.914 324.749 545.077 132 135 142
256.588 327.466 549.637 132 135 142
0.570723 340.722 570.929 61 65 66
1.14097 340.579 570.689 65 66 68
20.3529 319.755 535.795 68 67 73
26.0118 304.491 510.218 87 77 86
30.3068 328.966 551.231 86 84 89
30.8788 329.19 551.605 82 81 86
43.2738 300.401 503.365 116 115 110
45.4303 298.043 499.414 122 123 118
54.5595 319.333 535.089 143 148 151
54.9432 318.457 533.621 145 150 153
67.798 329.068 551.402 88 56 43
67.8818 326.818 547.631 68 49 34
68.3483 326.432 546.983 78 59 45
69.4613 326.523 547.136 81 48 39
73.6141 327.967 549.557 54 30 26
75.7229 329.975 552.921 52 29 23
76.0473 328.987 551.266 53 30 24
99.3412 312.141 523.037 115 123 126
122.613 322.467 540.339 121 99 102
128.498 311.844 522.54 108 97 111
128.671 310.999 521.124 107 95 109
129.766 307.423 515.132 110 93 101
136.278 299.11 501.202 74 61 70
136.909 299.394 501.678 74 62 74
137.327 299.213 501.375 74 64 75
137.481 298.458 500.11 76 66 77
139.574 299.732 502.244 87 76 90
140.13 299.847 502.438 91 81 92
142.848 290.068 486.051 115 83 72
146.215 293.907 492.483 86 54 43
180.622 310.752 520.711 146 150 153
180.707 310.007 519.461 146 150 153
217.952 322.871 541.018 144 149 155
217.897 321.992 539.544 144 149 155
252.872 323.959 542.839 132 135 142
253.146 323.615 542.263 133 136 143
1.14086 341.117 570.636 57 57 59
3.99005 340.865 570.213 95 94 92
20.8826 320.2 535.645 65 64 70
41.7124 307.95 515.153 110 118 121
42.1826 307.624 514.607 124 129 133
42.6694 307.426 514.275 112 116 117
54.3922 322.045 538.73 144 149 153
54.7823 321.175 537.275 143 148 152
67.7003 329.145 550.607 84 55 41
73.593 328.422 549.399 54 31 25
75.2958 331.08 553.845 49 29 22
75.6205 330.081 552.173 51 31 24
98.9242 316.346 529.197 134 142 145
123.254 323.273 540.784 118 92 95
123.765 323.194 540.652 121 94 99
124.244 323.034 540.385 124 99 105
129.559 309.904 518.421 106 94 106
129.732 309.082 517.046 105 93 103
130.374 308.156 515.497 104 91 100
130.575 307.416 514.259 99 86 95
130.775 306.679 513.026 100 85 92
137.238 298.431 499.227 78 63 68
148.414 295.838 494.89 59 46 38
149.58 296.188 495.475 43 36 28
180.415 311.816 521.62 146 150 153
180.448 310.974 520.211 146 150 153
217.716 323.866 541.777 143 148 154
217.667 322.99 540.311 144 149 155
252.419 324.617 543.033 133 136 145
252.271 323.73 541.549 132 135 144
14.5134 334.367 558.41 55 54 62
21.003 314.52 525.264 89 86 93
27.3497 315.047 526.145 66 56 64
54.6159 323.91 540.946 144 149 153
55.007 323.031 539.479 144 149 153
67.3558 330.706 552.295 91 55 43
